ply
format ascii 1.0
comment Created by CloudCompare v2.12.4 (Kyiv)
comment Created 2023-08-22T23:51:44
obj_info Generated by CloudCompare!
element vertex 1662
property float x
property float y
property float z
end_header
-0.077500 0.157522 -0.015448 
-0.077000 0.157557 -0.012750 
-0.077000 0.160542 -0.017077 
-0.075750 0.164327 -0.019248 
-0.076250 0.159834 -0.012486 
-0.075750 0.156888 -0.007081 
-0.074500 0.163593 -0.016006 
-0.067273 0.162326 -0.015686 
-0.072615 0.166224 -0.017841 
-0.069000 0.165100 -0.017630 
-0.073500 0.162109 -0.012222 
-0.067750 0.161351 -0.012220 
-0.072546 0.163927 -0.013692 
-0.070285 0.163887 -0.013926 
-0.065250 0.161303 -0.017079 
-0.075250 0.156892 -0.006811 
-0.067000 0.156153 -0.006541 
-0.073000 0.156207 -0.002762 
-0.069000 0.156207 -0.002762 
-0.073147 0.160895 -0.008289 
-0.068750 0.159882 -0.008167 
-0.018000 0.187940 -0.019725 
-0.036476 0.149349 -0.002608 
-0.049000 0.166725 -0.000218 
-0.037222 0.161818 -0.000877 
-0.036500 0.165215 -0.001430 
-0.017479 0.157098 -0.009981 
-0.017255 0.168164 -0.014786 
-0.018194 0.163004 -0.010276 
-0.023698 0.166786 -0.010891 
-0.019560 0.165980 -0.012347 
-0.027085 0.153598 -0.004906 
-0.033862 0.150781 -0.002356 
-0.029715 0.152914 -0.002978 
-0.032250 0.154028 -0.000196 
-0.028750 0.155485 -0.001547 
-0.022779 0.154986 -0.007498 
-0.019823 0.156401 -0.007633 
-0.024265 0.156479 -0.002609 
-0.021127 0.157904 -0.004252 
-0.028094 0.162418 -0.005698 
-0.032500 0.166694 -0.005348 
-0.029022 0.166129 -0.007588 
-0.034053 0.161032 -0.001980 
-0.029250 0.161446 -0.002772 
-0.034719 0.166215 -0.002631 
-0.030000 0.163685 -0.004802 
-0.024010 0.161619 -0.006348 
-0.019228 0.160814 -0.006859 
-0.024500 0.165165 -0.008585 
-0.019500 0.163653 -0.008716 
-0.024000 0.160700 -0.002231 
-0.020500 0.160677 -0.004390 
-0.046750 0.168975 -0.000492 
-0.036750 0.176490 -0.006046 
-0.044000 0.171223 -0.002117 
-0.039238 0.172210 -0.001407 
-0.038500 0.174229 -0.003204 
-0.027500 0.171204 -0.009815 
-0.026750 0.174984 -0.009825 
-0.018500 0.171190 -0.015622 
-0.019000 0.175748 -0.016716 
-0.024000 0.171198 -0.012381 
-0.020000 0.169677 -0.013997 
-0.024500 0.175743 -0.012258 
-0.021058 0.175636 -0.014321 
-0.019250 0.181069 -0.016867 
-0.018750 0.185626 -0.016474 
-0.023000 0.180287 -0.012000 
-0.020510 0.180795 -0.013189 
-0.024000 0.184829 -0.011877 
-0.020708 0.184500 -0.013120 
-0.032000 0.169707 -0.005760 
-0.029116 0.171309 -0.007401 
-0.034500 0.177243 -0.005642 
-0.028500 0.175737 -0.006720 
-0.033750 0.170471 -0.002116 
-0.031199 0.172069 -0.003814 
-0.034000 0.175733 -0.003208 
-0.030214 0.175743 -0.003784 
-0.025819 0.176428 -0.008450 
-0.033000 0.178756 -0.007267 
-0.028750 0.181021 -0.007678 
-0.024763 0.180099 -0.008314 
0.026015 0.114772 -0.003356 
0.029577 0.111970 -0.003393 
0.024078 0.116882 -0.003139 
0.032185 0.110643 -0.000424 
-0.008664 0.167303 -0.024803 
-0.009914 0.163615 -0.019894 
-0.008991 0.165821 -0.021698 
-0.008265 0.171012 -0.026522 
-0.009344 0.176235 -0.026891 
-0.012454 0.171798 -0.019811 
-0.009928 0.171020 -0.021858 
-0.013358 0.176272 -0.021239 
-0.010750 0.174991 -0.022927 
-0.012806 0.182239 -0.025004 
-0.010089 0.180715 -0.027198 
-0.013750 0.185718 -0.027017 
-0.011750 0.184183 -0.026606 
-0.014500 0.180331 -0.021729 
-0.011743 0.179234 -0.024264 
-0.014991 0.185226 -0.022062 
-0.014913 0.158530 -0.012463 
-0.012338 0.160700 -0.015394 
-0.010812 0.162151 -0.017627 
-0.013672 0.167367 -0.016170 
-0.010250 0.165866 -0.016822 
-0.013721 0.161463 -0.011669 
-0.011750 0.162848 -0.014249 
-0.014750 0.165891 -0.013042 
-0.011750 0.164367 -0.014118 
-0.016661 0.158565 -0.008814 
-0.015750 0.161388 -0.008576 
-0.014750 0.170427 -0.016971 
-0.011000 0.169661 -0.018589 
-0.015973 0.175562 -0.018400 
-0.016496 0.180767 -0.018841 
-0.016741 0.185217 -0.018414 
-0.072750 0.039501 0.007200 
-0.069750 0.039734 0.009483 
-0.070750 0.042436 0.007329 
-0.068000 0.044652 0.007584 
-0.065750 0.046681 0.005930 
-0.060000 0.048667 0.004040 
-0.064000 0.046173 0.008219 
-0.062500 0.047452 0.006319 
-0.058000 0.049033 0.007587 
-0.068250 0.035736 0.013032 
-0.070750 0.036871 0.009989 
-0.068000 0.039162 0.011004 
-0.067250 0.042726 0.010245 
-0.063500 0.043618 0.011893 
-0.059250 0.045702 0.010880 
-0.057750 0.047147 0.010754 
-0.078500 0.069743 0.016283 
-0.057750 0.053604 0.003348 
-0.057250 0.056385 0.002528 
-0.057000 0.053207 0.006432 
-0.064500 0.059856 0.016940 
-0.059250 0.057795 0.017706 
-0.073000 0.064183 0.017692 
-0.068750 0.062132 0.018585 
-0.074500 0.067077 0.018321 
-0.067250 0.037765 0.032186 
-0.066500 0.038895 0.036117 
-0.065500 0.040478 0.037636 
-0.065750 0.042365 0.035222 
-0.064250 0.043894 0.036234 
-0.057541 0.045955 0.038529 
-0.061526 0.047080 0.036207 
-0.058750 0.048254 0.037113 
-0.078250 0.070807 0.020474 
-0.076000 0.070528 0.025556 
-0.065750 0.060804 0.019603 
-0.062500 0.060253 0.021380 
-0.058250 0.059624 0.022269 
-0.057500 0.060560 0.024805 
-0.071500 0.064427 0.020485 
-0.068500 0.063088 0.021376 
-0.073000 0.067394 0.022004 
-0.070500 0.066175 0.024291 
-0.067000 0.064926 0.026197 
-0.072750 0.068581 0.027590 
-0.069000 0.066406 0.026957 
-0.064000 0.061828 0.023154 
-0.060250 0.061222 0.024297 
-0.063500 0.063568 0.026832 
-0.058500 0.062188 0.027214 
-0.068456 0.065545 0.030502 
-0.072176 0.069096 0.032511 
-0.068500 0.068235 0.031781 
-0.071267 0.070658 0.034698 
-0.067170 0.069395 0.035411 
-0.063732 0.064306 0.031247 
-0.058500 0.063971 0.031401 
-0.064500 0.066913 0.032797 
-0.060750 0.066297 0.033812 
-0.061478 0.065972 0.034518 
-0.058129 0.065415 0.035449 
-0.062787 0.068168 0.036543 
-0.058250 0.067947 0.036605 
-0.055750 0.051326 0.009227 
-0.053750 0.048771 0.012528 
-0.055500 0.053417 0.008713 
-0.055000 0.056325 0.009338 
-0.053000 0.053709 0.011882 
-0.054500 0.056406 0.010226 
-0.054000 0.057166 0.018595 
-0.053000 0.051061 0.029124 
-0.054250 0.049130 0.031408 
-0.053025 0.045395 0.038509 
-0.048772 0.045538 0.038531 
-0.054000 0.048965 0.037111 
-0.048723 0.048969 0.037194 
-0.043361 0.044317 0.038508 
-0.041215 0.045031 0.037645 
-0.043594 0.049163 0.037613 
-0.038925 0.049238 0.036470 
-0.033104 0.049474 0.037016 
-0.030348 0.050269 0.037047 
-0.053750 0.058151 0.021637 
-0.052500 0.053756 0.027728 
-0.053000 0.059350 0.027090 
-0.054750 0.061538 0.027849 
-0.053781 0.053440 0.032778 
-0.050500 0.054250 0.033051 
-0.054550 0.060352 0.031493 
-0.050500 0.058444 0.032671 
-0.051658 0.052980 0.035460 
-0.049105 0.053855 0.036966 
-0.048000 0.058766 0.036221 
-0.043296 0.053399 0.037953 
-0.038764 0.053450 0.036611 
-0.043752 0.057637 0.038964 
-0.038177 0.058420 0.037804 
-0.053750 0.063288 0.031655 
-0.051000 0.062729 0.033305 
-0.052580 0.064171 0.035629 
-0.048250 0.063726 0.036604 
-0.054206 0.068397 0.036699 
-0.049500 0.067364 0.038002 
-0.045500 0.063236 0.039014 
-0.038207 0.063361 0.038980 
-0.036618 0.066878 0.039012 
-0.033750 0.053970 0.037613 
-0.029250 0.053852 0.036346 
-0.034106 0.059130 0.036214 
-0.029000 0.058812 0.036728 
-0.026500 0.054708 0.037994 
-0.026500 0.058938 0.038123 
-0.034150 0.063343 0.036943 
-0.029000 0.063112 0.037618 
-0.034058 0.067568 0.037869 
-0.029000 0.067431 0.038763 
-0.026500 0.063236 0.039014 
-0.082500 0.074674 0.007118 
-0.085750 0.079037 0.017025 
-0.082000 0.073773 0.013477 
-0.081500 0.074088 0.017290 
-0.080000 0.072796 0.018818 
-0.083500 0.076990 0.018047 
-0.086750 0.083397 0.018288 
-0.088500 0.086961 0.018160 
-0.089750 0.092110 0.019444 
-0.089250 0.097774 0.017804 
-0.088500 0.102770 0.016798 
-0.086750 0.106455 0.017951 
-0.081250 0.075238 0.022627 
-0.078750 0.072182 0.019963 
-0.082750 0.078019 0.021987 
-0.078000 0.073484 0.027078 
-0.083000 0.079097 0.026564 
-0.080250 0.077111 0.028219 
-0.085500 0.082907 0.021089 
-0.087750 0.088000 0.022362 
-0.086250 0.088250 0.025671 
-0.085000 0.082948 0.021598 
-0.084000 0.083428 0.027706 
-0.084500 0.087697 0.027833 
-0.076750 0.074476 0.030508 
-0.082348 0.079419 0.032002 
-0.078500 0.078118 0.031906 
-0.075722 0.074076 0.034743 
-0.077280 0.078338 0.035912 
-0.081750 0.083024 0.031523 
-0.079750 0.081775 0.033559 
-0.082500 0.087968 0.031397 
-0.081070 0.083881 0.035552 
-0.077750 0.083416 0.036485 
-0.081312 0.088178 0.035988 
-0.078250 0.087674 0.036869 
-0.075250 0.071514 0.028858 
-0.073500 0.072541 0.032669 
-0.070500 0.071239 0.033939 
-0.075250 0.076170 0.033940 
-0.072856 0.073504 0.035853 
-0.068500 0.072893 0.036862 
-0.073250 0.077828 0.036991 
-0.069250 0.076558 0.038643 
-0.063750 0.072329 0.038513 
-0.058750 0.070967 0.039020 
-0.074500 0.082864 0.038393 
-0.075250 0.086428 0.039032 
-0.088750 0.092311 0.022244 
-0.088250 0.098097 0.022637 
-0.086750 0.092603 0.026315 
-0.086500 0.097608 0.026070 
-0.085000 0.093484 0.028607 
-0.084750 0.098487 0.028488 
-0.087250 0.102375 0.022010 
-0.085750 0.106636 0.021002 
-0.086263 0.103552 0.027486 
-0.085662 0.105710 0.026986 
-0.084750 0.108114 0.021641 
-0.083750 0.102752 0.027987 
-0.082500 0.107708 0.026979 
-0.082750 0.092969 0.031405 
-0.080250 0.093160 0.034077 
-0.082500 0.097960 0.031285 
-0.079750 0.098836 0.033703 
-0.082101 0.094535 0.034242 
-0.078000 0.092623 0.036494 
-0.080821 0.098165 0.034705 
-0.077750 0.097566 0.035991 
-0.082602 0.102301 0.031111 
-0.078750 0.103073 0.033074 
-0.080750 0.107156 0.029775 
-0.078500 0.107999 0.031937 
-0.077560 0.102557 0.035840 
-0.077702 0.107604 0.036849 
-0.075250 0.094927 0.038914 
-0.074500 0.098440 0.038409 
-0.073414 0.102676 0.037482 
-0.068264 0.104216 0.038788 
-0.073035 0.107642 0.036594 
-0.068350 0.107713 0.037251 
-0.065384 0.104969 0.039002 
-0.063324 0.107775 0.037522 
-0.058369 0.107830 0.037688 
-0.035132 0.071765 0.038863 
-0.053058 0.104399 0.038900 
-0.053145 0.107870 0.037362 
-0.048596 0.108621 0.037360 
-0.042730 0.103788 0.038531 
-0.038825 0.103792 0.038045 
-0.043595 0.107959 0.037167 
-0.038800 0.107262 0.036672 
-0.035274 0.103830 0.038816 
-0.034200 0.107976 0.036746 
-0.029005 0.108002 0.037265 
-0.024760 0.108743 0.038594 
-0.020506 0.109457 0.039049 
-0.068046 0.035116 0.040674 
-0.066975 0.038782 0.041719 
-0.063250 0.035979 0.042087 
-0.060150 0.033549 0.043861 
-0.063500 0.039522 0.042078 
-0.057004 0.040715 0.043876 
-0.063460 0.034868 0.044302 
-0.058218 0.035114 0.044885 
-0.062963 0.038433 0.044506 
-0.058250 0.039297 0.046647 
-0.065931 0.042982 0.040492 
-0.063252 0.043840 0.041296 
-0.058156 0.044038 0.041666 
-0.058250 0.047142 0.040284 
-0.057250 0.043377 0.045113 
-0.053358 0.033021 0.042740 
-0.048333 0.033836 0.041661 
-0.052951 0.039369 0.042750 
-0.048351 0.039444 0.041508 
-0.054297 0.034492 0.043994 
-0.053250 0.039338 0.047027 
-0.048750 0.039163 0.045378 
-0.044405 0.034619 0.040747 
-0.044435 0.039485 0.040150 
-0.039500 0.039562 0.042459 
-0.038139 0.036188 0.048576 
-0.044500 0.038348 0.044365 
-0.038469 0.039584 0.047570 
-0.053584 0.043428 0.040841 
-0.048500 0.045229 0.042444 
-0.054000 0.047852 0.040282 
-0.048250 0.047142 0.040284 
-0.053250 0.043415 0.045493 
-0.049250 0.043286 0.044225 
-0.043250 0.044457 0.041812 
-0.039000 0.043684 0.041180 
-0.043250 0.048512 0.039774 
-0.038750 0.048500 0.039647 
-0.045750 0.041845 0.043975 
-0.036876 0.043000 0.045835 
-0.037212 0.034870 0.049078 
-0.036864 0.038367 0.049065 
-0.035500 0.039977 0.046391 
-0.018474 0.033497 0.048636 
-0.017999 0.039753 0.048747 
-0.035966 0.045524 0.041784 
-0.033750 0.048611 0.040788 
-0.029124 0.048571 0.041989 
-0.034000 0.044173 0.045998 
-0.029921 0.045469 0.047549 
-0.032347 0.046642 0.045739 
-0.029000 0.048435 0.046239 
-0.025362 0.048778 0.043066 
-0.024161 0.045642 0.047119 
-0.019115 0.044393 0.046560 
-0.024500 0.049884 0.046615 
-0.019576 0.048545 0.046678 
-0.034294 0.034457 0.051150 
-0.029242 0.034025 0.051913 
-0.033793 0.038629 0.050903 
-0.029193 0.039573 0.051860 
-0.028500 0.039351 0.053693 
-0.024370 0.034151 0.051068 
-0.020109 0.034180 0.049329 
-0.024061 0.039004 0.050968 
-0.018500 0.039260 0.052853 
-0.024500 0.039403 0.054174 
-0.021000 0.039351 0.053693 
-0.032500 0.043147 0.049719 
-0.029250 0.043965 0.050797 
-0.027500 0.047359 0.049585 
-0.024448 0.043097 0.050308 
-0.018750 0.044153 0.052598 
-0.023750 0.048137 0.050304 
-0.019500 0.047470 0.050666 
-0.023750 0.042888 0.053923 
-0.046307 0.059669 0.039164 
-0.043250 0.054123 0.039261 
-0.039250 0.054135 0.039387 
-0.043000 0.059111 0.040025 
-0.039000 0.059157 0.040533 
-0.047373 0.063837 0.039282 
-0.053684 0.070686 0.039634 
-0.048567 0.068770 0.040526 
-0.043500 0.063371 0.040537 
-0.039000 0.063461 0.041552 
-0.043750 0.068331 0.041049 
-0.038750 0.068386 0.041684 
-0.027750 0.051401 0.040274 
-0.035000 0.059054 0.039391 
-0.024000 0.053657 0.041794 
-0.024250 0.058547 0.041546 
-0.024045 0.053897 0.046215 
-0.019750 0.053467 0.047242 
-0.022250 0.058859 0.044970 
-0.020500 0.058390 0.047504 
-0.034500 0.063360 0.040410 
-0.034250 0.068342 0.041176 
-0.028750 0.069615 0.039654 
-0.024500 0.063506 0.042059 
-0.025750 0.068463 0.042573 
-0.022250 0.064578 0.046247 
-0.021250 0.063257 0.047133 
-0.023750 0.068748 0.045874 
-0.021750 0.066124 0.047900 
-0.019339 0.054282 0.049560 
-0.022329 0.058280 0.049522 
-0.019123 0.058511 0.051557 
-0.023308 0.063786 0.050624 
-0.018750 0.063581 0.050788 
-0.024299 0.068581 0.051281 
-0.019750 0.067890 0.052235 
-0.019592 0.068837 0.053743 
-0.075484 0.084202 0.039303 
-0.076283 0.088472 0.039809 
-0.066836 0.074579 0.039779 
-0.071815 0.079390 0.039912 
-0.067986 0.078139 0.041119 
-0.062786 0.074036 0.040851 
-0.058500 0.073246 0.041054 
-0.063299 0.078284 0.041778 
-0.058477 0.077769 0.043095 
-0.057500 0.079101 0.043984 
-0.072839 0.082918 0.040549 
-0.068500 0.083177 0.042337 
-0.072750 0.087987 0.040942 
-0.069250 0.088124 0.042724 
-0.065750 0.084009 0.043991 
-0.066750 0.088241 0.044252 
-0.063256 0.082538 0.042634 
-0.059243 0.083379 0.043620 
-0.062072 0.087542 0.043813 
-0.058444 0.087615 0.043808 
-0.063000 0.083328 0.044245 
-0.057993 0.082735 0.044136 
-0.063250 0.088319 0.045270 
-0.059250 0.088300 0.045015 
-0.076541 0.092723 0.039334 
-0.075766 0.096290 0.039059 
-0.077377 0.108521 0.042190 
-0.080315 0.109291 0.044520 
-0.078717 0.109294 0.044201 
-0.072950 0.092868 0.041049 
-0.068047 0.093000 0.042025 
-0.072500 0.097160 0.040443 
-0.068250 0.097956 0.041715 
-0.066250 0.091047 0.043999 
-0.063820 0.093843 0.043326 
-0.057965 0.093929 0.043036 
-0.062984 0.098029 0.041794 
-0.058036 0.097425 0.042409 
-0.062750 0.092525 0.044891 
-0.058250 0.092562 0.045400 
-0.061750 0.095304 0.044257 
-0.058500 0.096001 0.044131 
-0.071500 0.101330 0.039175 
-0.067750 0.102121 0.040448 
-0.073329 0.109244 0.041453 
-0.067000 0.105578 0.039053 
-0.063000 0.102902 0.041593 
-0.058647 0.102296 0.040957 
-0.062750 0.106334 0.039816 
-0.058250 0.106357 0.040198 
-0.053368 0.073619 0.041807 
-0.048500 0.073289 0.041563 
-0.053179 0.077879 0.042875 
-0.048767 0.077889 0.041357 
-0.053750 0.079833 0.044367 
-0.048750 0.078400 0.043984 
-0.043680 0.073109 0.041384 
-0.039000 0.073331 0.042071 
-0.043703 0.077998 0.041683 
-0.039045 0.078070 0.041413 
-0.053644 0.081394 0.043446 
-0.047836 0.082829 0.042168 
-0.053813 0.089097 0.043467 
-0.048321 0.088419 0.042218 
-0.053750 0.082698 0.045134 
-0.048750 0.084079 0.044882 
-0.053000 0.087623 0.045397 
-0.048500 0.087623 0.045397 
-0.043862 0.082874 0.041783 
-0.038318 0.082967 0.041925 
-0.043744 0.087743 0.041402 
-0.038479 0.087837 0.042023 
-0.045750 0.084019 0.044119 
-0.037750 0.084009 0.043991 
-0.045250 0.088221 0.043997 
-0.038000 0.086113 0.043995 
-0.034000 0.073289 0.041563 
-0.028500 0.073214 0.040673 
-0.033750 0.078202 0.041568 
-0.029750 0.078223 0.041822 
-0.026750 0.074235 0.044486 
-0.027750 0.078566 0.046018 
-0.026500 0.072035 0.043339 
-0.024750 0.073058 0.047151 
-0.026250 0.077270 0.047286 
-0.033500 0.083146 0.041955 
-0.030250 0.082475 0.042336 
-0.034187 0.087218 0.042563 
-0.030250 0.088212 0.043870 
-0.028750 0.082769 0.046025 
-0.033500 0.088928 0.043998 
-0.028500 0.087653 0.045779 
-0.026500 0.089286 0.048797 
-0.026658 0.073335 0.051708 
-0.027791 0.078168 0.053043 
-0.026960 0.078905 0.053802 
-0.024538 0.073404 0.052152 
-0.020500 0.072846 0.053203 
-0.024750 0.077621 0.051892 
-0.021750 0.076364 0.053688 
-0.022962 0.074219 0.054003 
-0.018687 0.073003 0.054977 
-0.023906 0.078348 0.055189 
-0.019119 0.078478 0.055994 
-0.027250 0.083066 0.049985 
-0.027878 0.085617 0.051415 
-0.026965 0.081633 0.053733 
-0.025750 0.083216 0.052142 
-0.024938 0.088396 0.051226 
-0.020544 0.089907 0.053201 
-0.023813 0.082438 0.055232 
-0.019489 0.083214 0.055788 
-0.022750 0.087547 0.054425 
-0.019250 0.087656 0.056102 
-0.053931 0.093302 0.043198 
-0.048157 0.092640 0.042364 
-0.053629 0.098187 0.042199 
-0.048790 0.097529 0.041767 
-0.054250 0.092506 0.044637 
-0.048750 0.093928 0.044765 
-0.051250 0.096699 0.044004 
-0.048750 0.096716 0.044258 
-0.043492 0.092645 0.041217 
-0.039110 0.093447 0.042746 
-0.043991 0.097535 0.040817 
-0.038660 0.097601 0.041536 
-0.037250 0.092460 0.044000 
-0.053500 0.102886 0.041339 
-0.048750 0.102186 0.041465 
-0.053500 0.107043 0.039817 
-0.048000 0.107043 0.039817 
-0.043500 0.102902 0.041593 
-0.038750 0.102137 0.040702 
-0.043500 0.107059 0.040071 
-0.040000 0.105578 0.039053 
-0.033809 0.092134 0.043450 
-0.028720 0.092846 0.042467 
-0.034203 0.098358 0.042288 
-0.030250 0.097694 0.042332 
-0.034000 0.093212 0.044637 
-0.028750 0.093937 0.044892 
-0.033500 0.097414 0.044132 
-0.029500 0.097449 0.044641 
-0.024532 0.093596 0.042823 
-0.021625 0.095002 0.042619 
-0.024100 0.097777 0.043363 
-0.019714 0.097789 0.042695 
-0.025000 0.093378 0.046928 
-0.020066 0.093852 0.048484 
-0.023750 0.098172 0.044896 
-0.019750 0.096831 0.045912 
-0.034000 0.102870 0.041084 
-0.029500 0.102935 0.042102 
-0.033000 0.107005 0.039182 
-0.029250 0.106357 0.040198 
-0.024180 0.102580 0.041805 
-0.019457 0.102600 0.041632 
-0.024000 0.107135 0.041343 
-0.019250 0.107865 0.041725 
-0.024000 0.101643 0.044008 
-0.020250 0.100945 0.044135 
-0.023000 0.092245 0.051194 
-0.019302 0.092596 0.051410 
-0.018750 0.095733 0.050836 
-0.018250 0.091763 0.054787 
0.021177 0.033027 0.023364 
0.020616 0.034024 0.027402 
0.019149 0.034295 0.031459 
0.021958 0.037922 0.032391 
0.016283 0.033982 0.037472 
0.018446 0.035338 0.036176 
0.020021 0.038906 0.037074 
0.016889 0.043747 0.039029 
0.019917 0.043722 0.037257 
0.020819 0.047965 0.038484 
0.030901 0.033570 0.016754 
0.034933 0.034799 0.012875 
0.038299 0.035697 0.013799 
0.040333 0.036969 0.011426 
0.034286 0.035126 0.017246 
0.038706 0.036627 0.016595 
0.039877 0.037461 0.017851 
0.045391 0.040048 0.004128 
0.047073 0.041410 0.003013 
0.044517 0.038879 0.007312 
0.046600 0.040368 0.007671 
0.050487 0.044341 0.003517 
0.050020 0.043228 0.007297 
0.051484 0.045668 0.002286 
0.053065 0.049182 0.002307 
0.051826 0.044736 0.008137 
0.054047 0.048856 0.006864 
0.044826 0.039273 0.012197 
0.047390 0.040761 0.012374 
0.043613 0.038921 0.017084 
0.047157 0.041069 0.016464 
0.049972 0.042903 0.012118 
0.049523 0.043310 0.017666 
0.052843 0.045737 0.011827 
0.054407 0.048576 0.012281 
0.051969 0.045423 0.017211 
0.054099 0.048922 0.017150 
0.057250 0.050733 0.018101 
0.054882 0.054071 0.002642 
0.054938 0.059507 0.002601 
0.055240 0.052950 0.005857 
0.056559 0.054478 0.007759 
0.056281 0.059788 0.006341 
0.057113 0.057895 0.008050 
0.042550 0.068752 0.002860 
0.043144 0.069723 0.007706 
0.054290 0.064266 0.002875 
0.055749 0.063893 0.007245 
0.056329 0.062610 0.008124 
0.053634 0.067222 0.007173 
0.056067 0.052795 0.012847 
0.056584 0.054085 0.011800 
0.057100 0.058831 0.012005 
0.055766 0.053760 0.017267 
0.058750 0.053548 0.017841 
0.056112 0.058506 0.018111 
0.060000 0.058470 0.017324 
0.043775 0.069337 0.012636 
0.049599 0.069453 0.012301 
0.043371 0.068194 0.016510 
0.049065 0.069051 0.017299 
0.056141 0.064857 0.011794 
0.056845 0.062892 0.012427 
0.053871 0.067508 0.011955 
0.055114 0.064522 0.017842 
0.060250 0.063529 0.018328 
0.052808 0.067754 0.016605 
0.059750 0.067699 0.017304 
0.025105 0.033801 0.022451 
0.029236 0.034606 0.021835 
0.031000 0.037599 0.023814 
0.024080 0.035447 0.026238 
0.029248 0.036198 0.024480 
0.025428 0.038409 0.028149 
0.029769 0.039169 0.026954 
0.033996 0.036160 0.021681 
0.034750 0.038186 0.022545 
0.039248 0.038436 0.021789 
0.034635 0.039357 0.026987 
0.038223 0.040069 0.025577 
0.029432 0.043442 0.029026 
0.034500 0.042370 0.028248 
0.039750 0.043049 0.027866 
0.022292 0.036317 0.029365 
0.024500 0.038494 0.032312 
0.027750 0.040480 0.030787 
0.023500 0.038961 0.036751 
0.025486 0.042882 0.032572 
0.029500 0.044199 0.032176 
0.029926 0.048480 0.031858 
0.025750 0.044047 0.037755 
0.028250 0.045242 0.035471 
0.024753 0.048656 0.036694 
0.029500 0.048892 0.036351 
0.034920 0.044433 0.030398 
0.038750 0.044724 0.030273 
0.034250 0.049105 0.031154 
0.039250 0.049203 0.032168 
0.032250 0.050836 0.034319 
0.043680 0.040649 0.021583 
0.042304 0.041505 0.024429 
0.044750 0.042498 0.022415 
0.049000 0.044598 0.021780 
0.050255 0.047797 0.023079 
0.043750 0.044345 0.026470 
0.047250 0.045694 0.025582 
0.044984 0.048641 0.028200 
0.049250 0.048692 0.026846 
0.051500 0.045892 0.020258 
0.054000 0.048902 0.021524 
0.056750 0.050899 0.019875 
0.051750 0.049984 0.025324 
0.042750 0.046081 0.029511 
0.043750 0.049154 0.031661 
0.047250 0.050440 0.030139 
0.035409 0.053942 0.029124 
0.038443 0.055372 0.029104 
0.036614 0.058646 0.028566 
0.039093 0.058608 0.026877 
0.040761 0.064490 0.023420 
0.040858 0.068486 0.022584 
0.038738 0.063937 0.026236 
0.039043 0.068699 0.027019 
0.031790 0.052720 0.032722 
0.025611 0.052914 0.038745 
0.029330 0.053562 0.036640 
0.030345 0.058322 0.037577 
0.033337 0.054035 0.031409 
0.039250 0.053427 0.031784 
0.034784 0.058810 0.032093 
0.038750 0.059022 0.031275 
0.033500 0.054485 0.035586 
0.034750 0.058120 0.036855 
0.037000 0.060059 0.034953 
0.030463 0.063694 0.037628 
0.030615 0.068418 0.038189 
0.035479 0.063542 0.032561 
0.039750 0.063333 0.032162 
0.035376 0.068248 0.032748 
0.040000 0.068246 0.031908 
0.033163 0.063634 0.035376 
0.037750 0.063602 0.035208 
0.033187 0.068348 0.035749 
0.038000 0.068541 0.035336 
0.045393 0.053481 0.029135 
0.049240 0.054126 0.027218 
0.044294 0.059437 0.027830 
0.048879 0.058804 0.027027 
0.053586 0.053953 0.022055 
0.057750 0.053876 0.021390 
0.054151 0.058671 0.022334 
0.059000 0.058859 0.021636 
0.053500 0.053685 0.026968 
0.054750 0.058678 0.027471 
0.056500 0.059168 0.025060 
0.042888 0.064520 0.022989 
0.049335 0.064691 0.023565 
0.045000 0.070249 0.022253 
0.048651 0.067222 0.020729 
0.044250 0.064353 0.027720 
0.048897 0.062744 0.025188 
0.043250 0.068461 0.026193 
0.049000 0.067776 0.026448 
0.053408 0.063321 0.021581 
0.058750 0.063885 0.022390 
0.054750 0.069648 0.023525 
0.057750 0.068091 0.021876 
0.054500 0.063624 0.027467 
0.057000 0.063423 0.025183 
0.053500 0.067732 0.025940 
0.056500 0.066208 0.024672 
0.044250 0.053486 0.032418 
0.048500 0.054038 0.030770 
0.044000 0.058351 0.031656 
0.048750 0.058988 0.030895 
0.051750 0.056026 0.029375 
0.052250 0.058850 0.029373 
0.045000 0.062403 0.029625 
0.049000 0.062436 0.030006 
0.051500 0.062380 0.029371 
0.007241 0.108130 0.038951 
0.009914 0.108123 0.038434 
0.016606 0.104751 0.039007 
0.020326 0.102721 0.038740 
0.014915 0.108118 0.037781 
0.019904 0.107420 0.036683 
0.041456 0.079560 0.000122 
0.041602 0.089239 0.001005 
0.041627 0.088553 0.017930 
0.042656 0.073573 0.003351 
0.042567 0.078330 0.002668 
0.042966 0.073792 0.007353 
0.043060 0.077889 0.007398 
0.042538 0.083139 0.002961 
0.042374 0.087951 0.003055 
0.042895 0.082666 0.007491 
0.042614 0.088114 0.006955 
0.042980 0.073373 0.012266 
0.042813 0.078130 0.012358 
0.042734 0.073633 0.017229 
0.049250 0.073368 0.017165 
0.042499 0.078365 0.017220 
0.053750 0.073399 0.017546 
0.057250 0.071905 0.016660 
0.042579 0.082883 0.012351 
0.042345 0.087648 0.012344 
0.042264 0.083099 0.017212 
0.041826 0.087831 0.016906 
0.040803 0.093399 0.001514 
0.039860 0.097581 0.002699 
0.041439 0.093603 0.006883 
0.039955 0.097736 0.007276 
0.036454 0.103756 0.001558 
0.038107 0.101720 0.002697 
0.034281 0.107943 0.002713 
0.036628 0.104595 0.006677 
0.038202 0.101860 0.007273 
0.034835 0.107376 0.007536 
0.041237 0.093118 0.012370 
0.039705 0.097900 0.012233 
0.040717 0.093283 0.016931 
0.039097 0.097376 0.017125 
0.036503 0.104764 0.012707 
0.037951 0.102009 0.012229 
0.034794 0.107489 0.011913 
0.036702 0.103530 0.017466 
0.037497 0.102148 0.016889 
0.034475 0.107615 0.016770 
0.038750 0.107937 0.018590 
0.041753 0.090700 0.002970 
0.041746 0.092248 0.007364 
0.044250 0.097170 0.008773 
0.045000 0.092479 0.014484 
0.044500 0.093955 0.014869 
0.043250 0.097663 0.016150 
0.042250 0.101942 0.015143 
0.041096 0.073248 0.023268 
0.041550 0.077935 0.022497 
0.039354 0.073408 0.026925 
0.039801 0.078129 0.027030 
0.041257 0.083340 0.022833 
0.040886 0.088057 0.022626 
0.039564 0.082831 0.027019 
0.039000 0.088213 0.026958 
0.030958 0.072465 0.038601 
0.031425 0.078513 0.038704 
0.036163 0.072946 0.032465 
0.040250 0.073203 0.032161 
0.036188 0.078350 0.033266 
0.040000 0.078180 0.032669 
0.033688 0.073060 0.035934 
0.037750 0.073480 0.035464 
0.033742 0.078427 0.035892 
0.038000 0.078439 0.035847 
0.031832 0.081874 0.038782 
0.031311 0.088583 0.038754 
0.036242 0.083031 0.032796 
0.040250 0.083134 0.032922 
0.035821 0.088413 0.032944 
0.040000 0.088046 0.032415 
0.033766 0.083139 0.036264 
0.038250 0.083335 0.035467 
0.033663 0.087846 0.036450 
0.038000 0.088288 0.035597 
0.045000 0.073060 0.021995 
0.049500 0.071612 0.021616 
0.045250 0.078091 0.022877 
0.043500 0.073400 0.026061 
0.043750 0.078359 0.026184 
0.053500 0.071612 0.021616 
0.045000 0.083038 0.022743 
0.044750 0.087991 0.022234 
0.043750 0.082631 0.026561 
0.043000 0.087620 0.026815 
0.041750 0.073012 0.029874 
0.041750 0.078658 0.029871 
0.041750 0.082893 0.029869 
0.041750 0.085686 0.029486 
0.039852 0.093459 0.021873 
0.038299 0.097542 0.022166 
0.036729 0.094349 0.028371 
0.038292 0.092928 0.026256 
0.035713 0.097726 0.028134 
0.040250 0.098420 0.027471 
0.031854 0.109846 0.023972 
0.031749 0.104533 0.029268 
0.030694 0.108571 0.027627 
0.035835 0.103671 0.022407 
0.040500 0.103032 0.020995 
0.034001 0.107064 0.021859 
0.038750 0.106704 0.022147 
0.034667 0.102438 0.026937 
0.039250 0.102656 0.026461 
0.032988 0.106494 0.026156 
0.037750 0.106930 0.025960 
0.030972 0.099230 0.033575 
0.030318 0.093262 0.037635 
0.025525 0.099338 0.038011 
0.029389 0.097272 0.036181 
0.034955 0.093111 0.032011 
0.039500 0.092309 0.032167 
0.033890 0.097140 0.031245 
0.038750 0.097246 0.031284 
0.035750 0.093425 0.037767 
0.037500 0.092577 0.035857 
0.034750 0.097609 0.036627 
0.037000 0.095334 0.034589 
0.030377 0.102575 0.032181 
0.025028 0.108710 0.033517 
0.028851 0.107298 0.031167 
0.024787 0.102700 0.037295 
0.029750 0.103330 0.037143 
0.023798 0.106727 0.035753 
0.029250 0.107541 0.036258 
0.035250 0.103025 0.032311 
0.037250 0.101491 0.030655 
0.033750 0.107247 0.031300 
0.033250 0.101802 0.035488 
0.032000 0.105314 0.034730 
0.044250 0.092320 0.022371 
0.043000 0.097282 0.021236 
0.042750 0.092567 0.025806 
0.041750 0.096873 0.025814 
-0.014133 0.034265 0.047441 
-0.009600 0.034337 0.046099 
-0.014305 0.039106 0.047523 
-0.009840 0.039162 0.046082 
0.000409 0.033835 0.043484 
-0.004038 0.040593 0.043908 
0.000459 0.039347 0.043432 
-0.005068 0.034409 0.044758 
-0.001978 0.034467 0.043962 
-0.003750 0.039432 0.047915 
0.000250 0.039311 0.046774 
-0.014311 0.044494 0.045616 
-0.008852 0.044103 0.046976 
-0.015000 0.048584 0.047760 
-0.009750 0.047929 0.048262 
-0.004479 0.043555 0.046746 
0.000000 0.044186 0.046125 
-0.005500 0.047261 0.048625 
-0.000750 0.046544 0.048507 
-0.014500 0.039091 0.051292 
-0.009750 0.039627 0.049729 
-0.007000 0.038832 0.048891 
-0.014750 0.043990 0.051037 
-0.010250 0.043839 0.049596 
-0.014784 0.049622 0.049689 
-0.009807 0.049215 0.051232 
-0.003975 0.045860 0.049654 
-0.000286 0.045278 0.049308 
-0.004750 0.049617 0.051020 
0.000000 0.048926 0.051142 
0.005213 0.033951 0.042540 
0.010221 0.034099 0.041894 
0.005534 0.039497 0.042885 
0.010129 0.039643 0.042521 
0.004750 0.039217 0.045886 
0.009750 0.039136 0.045125 
0.014358 0.034830 0.040401 
0.014508 0.039037 0.041413 
0.019750 0.038800 0.041953 
0.014500 0.039776 0.044488 
0.006962 0.042322 0.043141 
0.010630 0.043766 0.042275 
0.012255 0.046679 0.043706 
0.005117 0.043895 0.046613 
0.009250 0.044803 0.045235 
0.006273 0.047524 0.048671 
0.010292 0.048879 0.046547 
0.014015 0.044446 0.040566 
0.020250 0.044508 0.042319 
0.016047 0.047417 0.042594 
0.019750 0.048697 0.041675 
0.014250 0.043325 0.044605 
0.017750 0.043260 0.043971 
0.014750 0.049092 0.045730 
0.019500 0.051150 0.045091 
0.003980 0.046087 0.048892 
0.005000 0.048938 0.051262 
0.009250 0.049532 0.050179 
-0.016500 0.051488 0.048612 
-0.014227 0.053889 0.051299 
-0.009750 0.053950 0.052211 
-0.014500 0.058796 0.051860 
-0.010000 0.057549 0.053418 
-0.013728 0.058843 0.054139 
-0.009500 0.059076 0.054861 
-0.004847 0.054287 0.052624 
0.000352 0.053727 0.051830 
0.002528 0.057271 0.053610 
-0.004250 0.054127 0.054012 
-0.000250 0.054210 0.054853 
-0.004621 0.059177 0.055064 
-0.000114 0.058638 0.055031 
-0.015325 0.063470 0.053022 
-0.013750 0.066620 0.053672 
-0.013000 0.063226 0.054627 
-0.009500 0.063333 0.055827 
-0.013983 0.069037 0.054865 
-0.009300 0.067893 0.056437 
-0.004500 0.063365 0.056187 
0.000000 0.063408 0.056667 
-0.004750 0.068235 0.056314 
0.000250 0.068235 0.056314 
0.011051 0.053791 0.047994 
0.011048 0.057858 0.048784 
0.020654 0.053696 0.042552 
0.020999 0.058440 0.043395 
0.015190 0.053814 0.046963 
0.019750 0.053419 0.046735 
0.014959 0.058508 0.046961 
0.018648 0.058490 0.045272 
0.020989 0.063803 0.043259 
0.022066 0.067182 0.043432 
0.015845 0.063254 0.047710 
0.018481 0.063879 0.045793 
0.016031 0.067330 0.048780 
0.020035 0.068635 0.046633 
0.004811 0.053834 0.051267 
0.010500 0.053218 0.051850 
0.005613 0.057935 0.052350 
0.009681 0.059249 0.050299 
0.005250 0.059805 0.055222 
0.008500 0.060367 0.053782 
0.014000 0.054390 0.049571 
0.014500 0.058628 0.050059 
0.019250 0.059215 0.048860 
0.005702 0.063348 0.053247 
0.010060 0.063343 0.051651 
0.006937 0.068081 0.053620 
0.010149 0.068062 0.052118 
0.005000 0.063376 0.056307 
0.009250 0.063942 0.054868 
0.005000 0.068869 0.055595 
0.009500 0.068819 0.054995 
0.014750 0.063634 0.051388 
0.018500 0.064142 0.049229 
0.015500 0.068577 0.052116 
0.019000 0.068406 0.050077 
0.012500 0.068718 0.053796 
0.022250 0.040045 0.040301 
0.023500 0.043594 0.040293 
0.023750 0.049969 0.040151 
0.025000 0.053634 0.041541 
0.028500 0.054896 0.040022 
0.024561 0.058411 0.041519 
0.029250 0.058513 0.041166 
0.022750 0.054631 0.044710 
0.023750 0.058906 0.045477 
0.032500 0.059065 0.039518 
0.024486 0.063768 0.041288 
0.030000 0.063484 0.041805 
0.024767 0.068502 0.042036 
0.029750 0.068397 0.041811 
0.024000 0.063810 0.045485 
0.027250 0.062974 0.043961 
0.023750 0.068748 0.045874 
0.033250 0.064028 0.040030 
0.033000 0.068946 0.040034 
-0.014380 0.073151 0.055966 
-0.009524 0.073307 0.056872 
-0.014750 0.077972 0.056568 
-0.009618 0.077990 0.056184 
-0.004391 0.073442 0.057298 
0.000079 0.073412 0.054979 
-0.004757 0.078085 0.056213 
0.000239 0.078144 0.055551 
-0.014628 0.083293 0.055816 
-0.009768 0.083372 0.055843 
-0.014750 0.087704 0.056821 
-0.009523 0.088100 0.055651 
0.001530 0.088840 0.053651 
-0.004513 0.082791 0.056020 
0.000328 0.082865 0.056019 
-0.004500 0.088397 0.056822 
0.000000 0.088374 0.056462 
0.020506 0.073379 0.047661 
0.020622 0.078746 0.047710 
0.015490 0.084066 0.048049 
0.019850 0.082747 0.047374 
0.015354 0.088052 0.046873 
0.019998 0.088088 0.046582 
0.007310 0.072784 0.053618 
0.010841 0.073476 0.053012 
0.006474 0.077471 0.053617 
0.009971 0.078122 0.052073 
0.005000 0.073104 0.056441 
0.009500 0.073037 0.055601 
0.005250 0.077927 0.055968 
0.009750 0.077882 0.055369 
0.015134 0.073462 0.051321 
0.019750 0.073372 0.051046 
0.014583 0.078129 0.050850 
0.020000 0.078283 0.051414 
0.014250 0.073589 0.053804 
0.014000 0.078505 0.054411 
0.006588 0.085526 0.053600 
0.010344 0.082824 0.052071 
0.005372 0.088828 0.052186 
0.009952 0.088166 0.051375 
0.005500 0.082830 0.056574 
0.009250 0.083440 0.055377 
0.005000 0.088351 0.056103 
0.009750 0.087594 0.055144 
0.015250 0.083233 0.052381 
0.019750 0.083133 0.050943 
0.015000 0.088080 0.051911 
0.019750 0.087226 0.049513 
0.013000 0.081236 0.053696 
0.012750 0.087508 0.053826 
-0.014788 0.097832 0.042820 
-0.009505 0.098567 0.043009 
-0.016475 0.095259 0.048394 
-0.014303 0.096576 0.046224 
-0.009433 0.097320 0.046695 
-0.005262 0.098599 0.043018 
0.000280 0.098645 0.043158 
-0.004574 0.097361 0.046720 
0.000071 0.096692 0.046004 
-0.014675 0.102649 0.042433 
-0.010027 0.102692 0.043036 
-0.014351 0.107455 0.041468 
-0.009704 0.107484 0.042071 
-0.015500 0.101643 0.044008 
-0.009500 0.100441 0.047187 
-0.008000 0.107295 0.044013 
-0.003938 0.102726 0.043092 
0.000043 0.102708 0.041830 
-0.004981 0.107492 0.041897 
0.000290 0.107499 0.041640 
-0.005250 0.100987 0.044771 
0.000250 0.102366 0.044263 
-0.004500 0.107295 0.044013 
-0.001500 0.105890 0.044139 
-0.014491 0.093314 0.050906 
-0.009918 0.093413 0.052287 
-0.014250 0.097171 0.051436 
-0.009500 0.097899 0.051915 
-0.014500 0.092514 0.055625 
-0.009500 0.092543 0.056104 
-0.009750 0.095919 0.054070 
-0.004991 0.093469 0.052412 
0.000356 0.093486 0.051380 
-0.004750 0.098587 0.051676 
0.000250 0.098587 0.051676 
-0.004500 0.092543 0.056104 
0.000000 0.092514 0.055625 
-0.004750 0.095933 0.054309 
0.000000 0.096598 0.053711 
0.004208 0.100053 0.043562 
0.005739 0.094099 0.048165 
0.010452 0.093446 0.047548 
0.005286 0.097420 0.046093 
0.009935 0.097479 0.046698 
0.021578 0.094082 0.043882 
0.016233 0.099467 0.043908 
0.020585 0.098090 0.042334 
0.014871 0.092770 0.046501 
0.019673 0.092772 0.045556 
0.014666 0.097482 0.045649 
0.020000 0.097606 0.046930 
0.005370 0.102034 0.041228 
0.009961 0.102771 0.042177 
0.005250 0.107865 0.041725 
0.010000 0.107135 0.041343 
0.005500 0.101759 0.045789 
0.009750 0.102522 0.046679 
0.010750 0.105199 0.044392 
0.014963 0.102777 0.041524 
0.019318 0.101422 0.040842 
0.014750 0.107843 0.041343 
0.019500 0.107112 0.040961 
0.014750 0.102522 0.046679 
0.019500 0.101743 0.045534 
0.014250 0.105191 0.044265 
0.004712 0.092149 0.050698 
0.010000 0.093712 0.052272 
0.005000 0.097846 0.050957 
0.009500 0.096394 0.050118 
0.004500 0.092455 0.054667 
0.010000 0.091004 0.053828 
0.014750 0.092939 0.051074 
0.017500 0.090722 0.049277 
0.013750 0.095664 0.049639 
-0.004250 0.073978 0.058720 
-0.001750 0.073968 0.058600 
-0.004250 0.076739 0.058604 
-0.001750 0.076739 0.058604 
0.025843 0.073256 0.043064 
0.028799 0.073217 0.041187 
0.025768 0.078611 0.042833 
0.029107 0.077911 0.041090 
0.024750 0.073048 0.047024 
0.028250 0.074214 0.044232 
0.023515 0.078014 0.045312 
0.028750 0.078473 0.044873 
0.033500 0.073150 0.039911 
0.033750 0.078161 0.041059 
0.025600 0.083308 0.042924 
0.029415 0.083292 0.041420 
0.025910 0.088007 0.042828 
0.028865 0.087966 0.040951 
0.025500 0.083581 0.047425 
0.028000 0.083419 0.045390 
0.025250 0.088485 0.047434 
0.028000 0.087584 0.044888 
0.033500 0.083086 0.041192 
0.034250 0.087997 0.041070 
0.022500 0.073928 0.049248 
0.023750 0.078831 0.049378 
0.023250 0.083033 0.049505 
0.022500 0.087886 0.048916 
0.024981 0.092686 0.041803 
0.030500 0.093065 0.042601 
0.024337 0.097369 0.040308 
0.029250 0.097938 0.041461 
0.024750 0.092655 0.046673 
0.027750 0.092516 0.044764 
0.024000 0.097510 0.045531 
0.033250 0.092246 0.041074 
0.032250 0.096416 0.039933 
0.025000 0.102894 0.041466 
0.028500 0.101396 0.040193 
0.024000 0.107005 0.039182 
0.022750 0.100945 0.044135 
-0.092000 0.114392 0.017716 
-0.087000 0.110061 0.017833 
-0.093000 0.115915 0.019244 
-0.090750 0.134052 0.019240 
-0.093500 0.117385 0.019755 
-0.094500 0.121879 0.023322 
-0.094000 0.127630 0.022170 
-0.093500 0.123443 0.025860 
-0.093250 0.127082 0.026362 
-0.092250 0.116215 0.038938 
-0.066930 0.111309 0.037922 
-0.055936 0.113393 0.034029 
-0.063305 0.112698 0.036107 
-0.058500 0.112506 0.036010 
-0.062775 0.115624 0.038594 
-0.057679 0.117027 0.037161 
-0.056935 0.121309 0.038155 
-0.061159 0.128475 0.038898 
-0.057456 0.127007 0.037262 
-0.092500 0.131939 0.021021 
-0.090750 0.137018 0.020887 
-0.090000 0.136314 0.021523 
-0.091750 0.131441 0.026864 
-0.091500 0.142101 0.020880 
-0.090000 0.139222 0.021646 
-0.091500 0.147918 0.021126 
-0.091000 0.142286 0.026847 
-0.089250 0.141606 0.028245 
-0.090750 0.145875 0.025953 
-0.089250 0.147367 0.027601 
-0.090750 0.131566 0.030039 
-0.091000 0.129723 0.037916 
-0.090000 0.134062 0.038924 
-0.089750 0.137551 0.036252 
-0.089000 0.142470 0.032815 
-0.087500 0.146763 0.031919 
-0.088250 0.141878 0.036879 
-0.085976 0.146535 0.036257 
-0.084750 0.148956 0.033185 
-0.083235 0.146531 0.037616 
-0.078571 0.148674 0.038640 
-0.056130 0.140469 0.028691 
-0.055942 0.146928 0.027489 
-0.056840 0.132657 0.033597 
-0.061412 0.136982 0.033894 
-0.058035 0.136932 0.031747 
-0.062625 0.132746 0.037539 
-0.058250 0.131854 0.037404 
-0.063000 0.136851 0.036761 
-0.059000 0.135375 0.035620 
-0.066740 0.147857 0.038706 
-0.060865 0.139851 0.033744 
-0.058132 0.141965 0.031934 
-0.058253 0.146275 0.031659 
-0.062867 0.141347 0.036988 
-0.060250 0.141842 0.035736 
-0.062822 0.146376 0.037385 
-0.059250 0.146150 0.035729 
-0.047435 0.128372 0.002652 
-0.046734 0.129172 0.005883 
-0.044277 0.127783 0.008633 
-0.039619 0.127065 0.008824 
-0.046174 0.129346 0.013805 
-0.046260 0.128712 0.017690 
-0.042963 0.127157 0.012795 
-0.039291 0.126429 0.012428 
-0.044382 0.124417 0.018767 
-0.037260 0.124447 0.019451 
-0.043250 0.128151 0.017216 
-0.039000 0.127402 0.016709 
-0.033392 0.124306 0.013586 
-0.035500 0.127285 0.013915 
-0.033191 0.123698 0.017891 
-0.029375 0.122986 0.017735 
-0.033750 0.126722 0.017853 
-0.030000 0.125923 0.016203 
-0.025789 0.123040 0.019444 
-0.023250 0.126689 0.017091 
-0.020000 0.127433 0.017471 
-0.049303 0.132022 0.002937 
-0.050820 0.136391 0.002387 
-0.048395 0.132101 0.006932 
-0.049968 0.136472 0.007188 
-0.049778 0.142229 0.002896 
-0.046385 0.144394 0.002943 
-0.049000 0.143161 0.007674 
-0.047870 0.145918 0.007833 
-0.043206 0.146550 0.002675 
-0.040409 0.147969 0.001419 
-0.045000 0.147532 0.006526 
-0.047741 0.132210 0.012329 
-0.049601 0.136559 0.012164 
-0.048144 0.132307 0.017063 
-0.051149 0.137395 0.018310 
-0.048750 0.136877 0.016824 
-0.043500 0.130150 0.012514 
-0.045500 0.131802 0.017465 
-0.051413 0.142378 0.012925 
-0.049250 0.141096 0.011993 
-0.051612 0.146006 0.012995 
-0.049750 0.146925 0.011224 
-0.052732 0.142446 0.017205 
-0.050250 0.141260 0.017199 
-0.052708 0.146786 0.017141 
-0.048193 0.118217 0.027967 
-0.044273 0.118944 0.027931 
-0.038747 0.118997 0.028935 
-0.046771 0.123089 0.023283 
-0.047465 0.127374 0.022167 
-0.048811 0.122463 0.026963 
-0.048933 0.126761 0.026687 
-0.044078 0.123060 0.021909 
-0.038481 0.123102 0.023017 
-0.045000 0.126190 0.022426 
-0.038500 0.126130 0.021029 
-0.043500 0.122008 0.026116 
-0.038750 0.122772 0.027004 
-0.046000 0.126294 0.024839 
-0.053225 0.113398 0.033568 
-0.048845 0.113406 0.032892 
-0.053096 0.116905 0.032346 
-0.048750 0.117255 0.031443 
-0.053250 0.111809 0.036264 
-0.048750 0.111816 0.036391 
-0.054250 0.117467 0.035636 
-0.043748 0.113456 0.033266 
-0.038962 0.112770 0.032757 
-0.043750 0.117261 0.031570 
-0.038750 0.117267 0.031697 
-0.043750 0.111809 0.036264 
-0.038750 0.111781 0.035755 
-0.052194 0.122606 0.032652 
-0.049250 0.121564 0.031958 
-0.052578 0.127613 0.032418 
-0.049250 0.127287 0.031188 
-0.053500 0.122507 0.036912 
-0.054000 0.126779 0.036143 
-0.038250 0.120038 0.029923 
-0.031104 0.119560 0.022823 
-0.033423 0.118272 0.027441 
-0.029654 0.118297 0.027643 
-0.025693 0.119692 0.027209 
-0.034197 0.122365 0.021773 
-0.029250 0.122563 0.022431 
-0.034750 0.125398 0.020903 
-0.029500 0.124622 0.019761 
-0.034000 0.122037 0.026751 
-0.028750 0.121290 0.026114 
-0.024500 0.123323 0.023192 
-0.019807 0.123838 0.022433 
-0.022750 0.125387 0.020649 
-0.018750 0.126867 0.021282 
-0.024500 0.122049 0.027005 
-0.019785 0.121081 0.027856 
-0.018500 0.124873 0.025477 
-0.033895 0.113491 0.032629 
-0.028971 0.113491 0.032751 
-0.033750 0.117261 0.031570 
-0.029250 0.117255 0.031443 
-0.033750 0.111773 0.035628 
-0.028750 0.111809 0.036264 
-0.025341 0.114216 0.034065 
-0.024097 0.116975 0.032277 
-0.019487 0.118367 0.032795 
-0.024044 0.112174 0.036459 
-0.019589 0.112887 0.037210 
-0.023250 0.116011 0.034998 
-0.019500 0.116794 0.036397 
-0.035250 0.120026 0.029669 
-0.023000 0.120778 0.030432 
-0.019250 0.121546 0.031576 
-0.017250 0.120252 0.034369 
-0.051051 0.133899 0.024305 
-0.048842 0.131685 0.021826 
-0.052682 0.137469 0.022275 
-0.049250 0.135588 0.021524 
-0.052122 0.133247 0.027632 
-0.049000 0.132169 0.026990 
-0.054079 0.136833 0.026899 
-0.050000 0.135024 0.025969 
-0.045500 0.130497 0.021277 
-0.053772 0.141803 0.022354 
-0.051000 0.140617 0.019866 
-0.053741 0.146848 0.021840 
-0.053250 0.141559 0.026721 
-0.054500 0.146658 0.028110 
-0.053900 0.131888 0.031269 
-0.050000 0.130865 0.030548 
-0.053750 0.135929 0.031048 
-0.055000 0.131066 0.035628 
-0.055250 0.143109 0.030147 
-0.055750 0.146011 0.030777 
-0.088500 0.152230 0.019215 
-0.058500 0.156364 0.007659 
-0.056000 0.160771 0.004518 
-0.057000 0.159292 0.005870 
-0.058191 0.155502 0.011562 
-0.061489 0.155579 0.018264 
-0.058461 0.154811 0.016952 
-0.090250 0.150099 0.021249 
-0.088250 0.151575 0.022263 
-0.087750 0.150232 0.026581 
-0.083500 0.153760 0.022641 
-0.082750 0.154458 0.021370 
-0.076750 0.155952 0.023399 
-0.082750 0.153124 0.026577 
-0.080750 0.154535 0.024925 
-0.077500 0.155275 0.025685 
-0.086000 0.149605 0.030391 
-0.083000 0.151075 0.031531 
-0.078500 0.152545 0.032798 
-0.077500 0.153928 0.030257 
-0.081500 0.149731 0.035342 
-0.077500 0.151182 0.035974 
-0.072750 0.156003 0.025938 
-0.067750 0.156029 0.027207 
-0.056444 0.153379 0.022610 
-0.063253 0.155616 0.021003 
-0.058176 0.154118 0.022271 
-0.057072 0.152701 0.027476 
-0.063500 0.155306 0.027208 
-0.058250 0.154576 0.026829 
-0.072938 0.152902 0.032602 
-0.067846 0.152852 0.032973 
-0.073250 0.154657 0.030637 
-0.067250 0.154674 0.031398 
-0.073000 0.151210 0.037117 
-0.068250 0.151912 0.036481 
-0.062626 0.152797 0.032643 
-0.058351 0.151309 0.031846 
-0.063750 0.154663 0.030891 
-0.059000 0.153942 0.030892 
-0.063500 0.151189 0.036228 
-0.059750 0.150446 0.035214 
-0.046837 0.151001 0.008790 
-0.054146 0.157638 0.009013 
-0.047965 0.156822 0.008778 
-0.041975 0.150195 0.004844 
-0.038750 0.151133 0.002911 
-0.043023 0.156741 0.004489 
-0.039623 0.157429 0.002803 
-0.043750 0.151217 0.007157 
-0.040750 0.152647 0.005338 
-0.043750 0.155615 0.006898 
-0.039500 0.156327 0.005739 
-0.054000 0.162259 0.003705 
-0.049632 0.163487 0.004849 
-0.052500 0.163747 0.002623 
-0.048750 0.165993 0.002619 
-0.053000 0.160793 0.006383 
-0.048500 0.160812 0.007525 
-0.047250 0.164514 0.005051 
-0.042181 0.160421 0.004309 
-0.039500 0.160741 0.001683 
-0.043657 0.167092 0.003323 
-0.038750 0.165992 0.002484 
-0.044000 0.160791 0.006256 
-0.044500 0.165260 0.004915 
-0.052812 0.151820 0.012879 
-0.049250 0.151311 0.011092 
-0.053750 0.155706 0.011341 
-0.049250 0.155680 0.010071 
-0.053797 0.151141 0.017220 
-0.035166 0.152275 0.001025 
-0.034000 0.156279 0.002365 
-0.030121 0.156569 0.001227 
-0.033250 0.159989 0.001415 
-0.029250 0.159983 0.000875 
-0.036094 0.167708 0.000645 
-0.043500 0.169731 0.000991 
-0.038750 0.170482 0.001395 
-0.035618 0.170654 0.000390 
-0.054545 0.151191 0.022339 
-0.054250 0.151678 0.026579 
-0.055750 0.151744 0.029372 
-0.090500 0.114168 0.040460 
-0.087250 0.112098 0.041475 
-0.092250 0.117763 0.041480 
-0.089750 0.115018 0.043130 
-0.087188 0.112833 0.045454 
-0.091816 0.117805 0.045209 
-0.088000 0.117321 0.046689 
-0.083250 0.110747 0.042617 
-0.079500 0.110099 0.043634 
-0.083000 0.113072 0.046305 
-0.077750 0.112388 0.046686 
-0.083023 0.116494 0.047487 
-0.079750 0.115268 0.047831 
-0.092750 0.122023 0.041738 
-0.091500 0.126997 0.041223 
-0.090000 0.128502 0.042999 
-0.092343 0.122109 0.045226 
-0.088250 0.122279 0.047200 
-0.091788 0.125708 0.044628 
-0.088000 0.127221 0.046430 
-0.083193 0.120781 0.048029 
-0.085250 0.118125 0.048813 
-0.077555 0.113053 0.049819 
-0.080841 0.118024 0.050655 
-0.078000 0.117506 0.051086 
-0.086000 0.121642 0.048815 
-0.087207 0.127275 0.049538 
-0.082770 0.122278 0.050392 
-0.078250 0.122439 0.051687 
-0.082750 0.126684 0.051561 
-0.077477 0.126646 0.052733 
-0.071750 0.110769 0.042999 
-0.067339 0.112133 0.041299 
-0.072781 0.110856 0.046662 
-0.068750 0.112374 0.046432 
-0.066296 0.116581 0.047169 
-0.064000 0.114209 0.041223 
-0.063804 0.117127 0.041489 
-0.059000 0.118375 0.039575 
-0.065500 0.114421 0.045162 
-0.064000 0.117302 0.046308 
-0.065958 0.128578 0.043397 
-0.066293 0.122261 0.047933 
-0.067322 0.127226 0.046754 
-0.062569 0.122108 0.041857 
-0.058500 0.122689 0.040850 
-0.063725 0.127101 0.041380 
-0.059000 0.126959 0.040334 
-0.063250 0.122249 0.046565 
-0.064000 0.127194 0.045796 
-0.073014 0.113103 0.050265 
-0.069250 0.113939 0.049648 
-0.072750 0.116854 0.052403 
-0.068250 0.116823 0.051565 
-0.065250 0.118152 0.049531 
-0.072546 0.122378 0.052962 
-0.068541 0.122334 0.050849 
-0.072749 0.127328 0.051220 
-0.068250 0.126666 0.050963 
-0.065000 0.121674 0.049772 
-0.090250 0.131963 0.040198 
-0.088500 0.132771 0.042610 
-0.088000 0.137021 0.041586 
-0.087250 0.132181 0.045786 
-0.086235 0.136557 0.045872 
-0.084750 0.133701 0.048316 
-0.083500 0.137218 0.047173 
-0.078279 0.138016 0.048633 
-0.086920 0.140814 0.041217 
-0.085483 0.144395 0.039249 
-0.083877 0.142256 0.042099 
-0.082000 0.145567 0.040428 
-0.078220 0.146538 0.041423 
-0.081750 0.140727 0.045642 
-0.077757 0.141563 0.046212 
-0.077500 0.144264 0.044747 
-0.086724 0.130856 0.048834 
-0.082500 0.131640 0.051193 
-0.078069 0.132345 0.051735 
-0.082000 0.135855 0.049270 
-0.077750 0.136591 0.050466 
-0.067017 0.132132 0.042206 
-0.067067 0.136428 0.042035 
-0.070957 0.132256 0.047966 
-0.067750 0.132221 0.046802 
-0.072597 0.137262 0.047665 
-0.068250 0.136475 0.046286 
-0.063500 0.131282 0.041088 
-0.059500 0.129775 0.039186 
-0.064750 0.136270 0.040571 
-0.065250 0.130700 0.044392 
-0.071203 0.143644 0.043795 
-0.067380 0.141445 0.041907 
-0.072984 0.146505 0.042004 
-0.068250 0.146321 0.041823 
-0.073164 0.141534 0.045849 
-0.069000 0.141428 0.045260 
-0.072750 0.144966 0.044365 
-0.070000 0.144245 0.044112 
-0.065000 0.141282 0.040689 
-0.064750 0.146246 0.039157 
-0.073000 0.131643 0.051313 
-0.069750 0.130890 0.049638 
-0.073500 0.135874 0.050108 
-0.070500 0.134428 0.049033 
-0.055750 0.123329 0.039198 
-0.023750 0.110567 0.039440 
-0.019000 0.111319 0.040203 
-0.076750 0.149118 0.039406 
-0.073250 0.149137 0.040167 
-0.068500 0.149827 0.039150 
-0.014000 0.128941 0.018739 
-0.000286 0.128595 0.016785 
0.016444 0.124064 0.003255 
0.019968 0.121900 0.001817 
0.014291 0.125489 0.002727 
0.016898 0.124094 0.005698 
0.019456 0.122683 0.006819 
0.014653 0.125549 0.007697 
0.007151 0.128480 0.011718 
0.009458 0.127759 0.012012 
0.005042 0.128560 0.017502 
0.010897 0.127102 0.017246 
0.017032 0.124191 0.012996 
0.019952 0.122754 0.011986 
0.014812 0.125607 0.012370 
0.016922 0.124251 0.017273 
0.019420 0.122835 0.017420 
0.014693 0.125672 0.017522 
0.019000 0.127513 0.019376 
-0.010750 0.129674 0.018865 
0.000500 0.131763 0.016449 
0.004500 0.131773 0.016703 
0.009250 0.131124 0.018736 
-0.014250 0.128345 0.021915 
-0.008184 0.127322 0.023872 
-0.014859 0.123873 0.027030 
-0.010202 0.124566 0.028076 
-0.014000 0.126375 0.026744 
-0.009500 0.127837 0.027123 
-0.004617 0.127284 0.022890 
0.000644 0.127251 0.023508 
-0.003508 0.124536 0.029021 
0.000463 0.124506 0.028633 
-0.004961 0.125924 0.026857 
0.000309 0.125885 0.026600 
-0.015512 0.119067 0.033728 
-0.015288 0.112908 0.038193 
-0.009121 0.113610 0.038791 
