ply
format ascii 1.0
comment Created by CloudCompare v2.12.4 (Kyiv)
comment Created 2023-08-22T23:51:44
obj_info Generated by CloudCompare!
element vertex 129
property float x
property float y
property float z
end_header
0.039002 0.068071 -0.007660 
0.037733 0.079653 -0.011116 
0.041816 0.084925 -0.003023 
0.034371 0.100632 -0.009421 
-0.064000 0.180443 -0.058698 
-0.078000 0.177314 -0.047571 
-0.067363 0.177127 -0.049453 
-0.042356 0.146508 -0.000517 
-0.078750 0.162734 -0.027207 
-0.065500 0.165048 -0.025055 
-0.077000 0.169610 -0.032768 
-0.069087 0.170823 -0.031416 
-0.076750 0.156851 -0.009780 
-0.066250 0.158358 -0.009243 
-0.018000 0.187940 -0.019725 
-0.049000 0.166725 -0.000218 
-0.026155 0.162388 -0.006404 
-0.040000 0.174229 -0.004960 
-0.025750 0.178007 -0.009292 
0.027639 0.114073 -0.003177 
-0.008879 0.165821 -0.023310 
-0.008913 0.177723 -0.028069 
-0.013332 0.160719 -0.012412 
-0.013500 0.172705 -0.019138 
-0.066500 0.042062 0.010878 
-0.079750 0.070432 0.016028 
-0.064500 0.059856 0.016940 
-0.067250 0.037765 0.032186 
-0.076500 0.070442 0.024540 
-0.065794 0.064120 0.029114 
-0.054750 0.047256 0.011894 
-0.053250 0.055832 0.011749 
-0.046568 0.044919 0.038672 
-0.031711 0.050143 0.035937 
-0.051250 0.060456 0.031529 
-0.028500 0.058812 0.036728 
-0.086750 0.081726 0.015111 
-0.087750 0.104840 0.015151 
-0.083250 0.081349 0.028216 
-0.069500 0.075813 0.038134 
-0.085480 0.100019 0.029159 
-0.068956 0.104896 0.038201 
-0.035132 0.071765 0.038863 
-0.042730 0.103788 0.038531 
-0.028978 0.106632 0.038224 
-0.063435 0.039773 0.043783 
-0.047250 0.040497 0.044613 
-0.026643 0.043042 0.050639 
-0.042250 0.062714 0.041043 
-0.022883 0.060997 0.049535 
-0.075484 0.084202 0.039303 
-0.064250 0.082607 0.043989 
-0.080315 0.109291 0.044520 
-0.064500 0.100113 0.042226 
-0.047000 0.080483 0.043732 
-0.027000 0.080928 0.049381 
-0.048250 0.098094 0.043751 
-0.025750 0.099550 0.044388 
0.018107 0.033550 0.031279 
0.034933 0.034799 0.012875 
0.049916 0.042760 0.010264 
0.056329 0.062610 0.008124 
0.031858 0.041441 0.028636 
0.048000 0.046425 0.025708 
0.035576 0.060136 0.031450 
0.051500 0.060991 0.029626 
0.015596 0.105423 0.038842 
0.041456 0.079560 0.000122 
0.046250 0.081344 0.010276 
0.037382 0.103329 0.010477 
0.044250 0.097170 0.008773 
0.036119 0.081028 0.033105 
0.044000 0.080460 0.025927 
0.033295 0.100482 0.029851 
0.042250 0.096822 0.025051 
-0.007000 0.041662 0.049003 
0.011750 0.041963 0.045116 
-0.007512 0.057578 0.052633 
0.012859 0.061260 0.049145 
0.024250 0.042819 0.039660 
0.027750 0.061538 0.043579 
-0.008664 0.080686 0.055748 
0.013049 0.080772 0.050315 
-0.007000 0.100515 0.048324 
0.012250 0.099805 0.048204 
-0.004250 0.076739 0.058604 
0.029250 0.079854 0.044621 
0.028750 0.096593 0.042477 
-0.092000 0.114392 0.017716 
-0.090750 0.134052 0.019240 
-0.093000 0.124946 0.027128 
-0.062795 0.113422 0.036395 
-0.089250 0.141606 0.028245 
-0.061865 0.138424 0.034084 
-0.044619 0.127791 0.009019 
-0.030513 0.123645 0.015605 
-0.048750 0.139638 0.012122 
-0.046000 0.119280 0.029032 
-0.026750 0.120008 0.029288 
-0.050750 0.135761 0.026349 
-0.088500 0.152230 0.019215 
-0.059250 0.157075 0.006516 
-0.082250 0.153153 0.027846 
-0.066000 0.155349 0.029239 
-0.046750 0.158586 0.008164 
-0.030000 0.159241 0.001551 
-0.043750 0.168985 0.001938 
-0.035750 0.171978 0.000042 
-0.054500 0.152392 0.026197 
-0.085250 0.119541 0.049053 
-0.066071 0.119442 0.048322 
-0.082905 0.138008 0.047173 
-0.068750 0.137904 0.046410 
-0.055750 0.123329 0.039198 
-0.021750 0.111971 0.039187 
-0.077250 0.149111 0.039152 
-0.068500 0.149827 0.039150 
-0.000902 0.128600 0.016770 
0.015788 0.124851 0.008935 
0.000500 0.131763 0.016449 
0.009250 0.131124 0.018736 
-0.007682 0.122486 0.031378 
0.013489 0.120274 0.030085 
-0.005750 0.129893 0.024326 
0.009250 0.129873 0.023818 
0.028775 0.115728 0.009997 
0.029750 0.117062 0.027631 
-0.007250 0.114890 0.040715 
0.008000 0.115519 0.039191 
