ply
format ascii 1.0
comment Created by CloudCompare v2.12.4 (Kyiv)
comment Created 2023-08-22T23:51:44
obj_info Generated by CloudCompare!
element vertex 1684
property float x
property float y
property float z
end_header
-0.060000 0.084710 0.043993 
-0.056750 0.084059 0.044628 
-0.064250 0.086873 0.044759 
-0.062250 0.086893 0.045014 
-0.064500 0.088996 0.044889 
-0.062000 0.089044 0.045525 
-0.059750 0.086883 0.044886 
-0.056750 0.086863 0.044632 
-0.059500 0.089005 0.045016 
-0.057000 0.088986 0.044761 
-0.076216 0.091327 0.039843 
-0.075959 0.093465 0.039728 
-0.075766 0.096290 0.039059 
-0.076083 0.108472 0.040538 
-0.078760 0.108530 0.042824 
-0.076580 0.109266 0.042899 
-0.080315 0.109291 0.044520 
-0.079274 0.109291 0.044272 
-0.074000 0.091491 0.040437 
-0.071654 0.091476 0.041206 
-0.074000 0.094298 0.040058 
-0.072216 0.094310 0.041205 
-0.071500 0.091585 0.041709 
-0.071250 0.093718 0.041839 
-0.069958 0.092230 0.041458 
-0.069145 0.094364 0.041271 
-0.069050 0.091580 0.042361 
-0.067000 0.091707 0.043364 
-0.069250 0.093754 0.042347 
-0.066750 0.093772 0.042602 
-0.073791 0.096372 0.040180 
-0.071618 0.096430 0.040703 
-0.074108 0.098462 0.039223 
-0.071750 0.099261 0.040063 
-0.071000 0.095823 0.041586 
-0.069032 0.096481 0.040944 
-0.066932 0.096533 0.041362 
-0.069325 0.099296 0.040452 
-0.066937 0.099366 0.041290 
-0.069250 0.096557 0.041968 
-0.066750 0.096566 0.042096 
-0.068750 0.097947 0.041588 
-0.067000 0.098663 0.041716 
-0.066250 0.091047 0.043999 
-0.064822 0.092428 0.043663 
-0.064369 0.094523 0.042949 
-0.061783 0.094578 0.043191 
-0.058680 0.092543 0.043794 
-0.056819 0.091854 0.043432 
-0.059556 0.094601 0.042906 
-0.056923 0.093935 0.042789 
-0.065418 0.098680 0.041314 
-0.062872 0.100139 0.041467 
-0.064250 0.096602 0.042605 
-0.062250 0.096654 0.043368 
-0.064500 0.098706 0.042352 
-0.062000 0.098723 0.042606 
-0.056541 0.099521 0.041448 
-0.059325 0.095990 0.042325 
-0.057289 0.096721 0.042190 
-0.059500 0.098732 0.042734 
-0.057000 0.098758 0.043115 
-0.064250 0.091104 0.044763 
-0.062000 0.091838 0.045145 
-0.063750 0.093873 0.044002 
-0.061750 0.093928 0.044765 
-0.059500 0.091857 0.045400 
-0.057000 0.091866 0.045527 
-0.059750 0.093946 0.045020 
-0.057250 0.093946 0.045020 
-0.061750 0.095304 0.044257 
-0.059500 0.096001 0.044131 
-0.057000 0.095992 0.044003 
-0.071500 0.101330 0.039175 
-0.069500 0.101387 0.040065 
-0.067111 0.101460 0.040543 
-0.068750 0.103466 0.039305 
-0.066750 0.103522 0.040195 
-0.065750 0.100787 0.041718 
-0.074987 0.108444 0.039483 
-0.071963 0.109200 0.039907 
-0.074156 0.109257 0.042017 
-0.066500 0.105586 0.039180 
-0.070340 0.109932 0.040052 
-0.064454 0.101511 0.040889 
-0.062497 0.101545 0.041096 
-0.064144 0.103603 0.039966 
-0.062187 0.103634 0.040173 
-0.064500 0.101511 0.041973 
-0.062000 0.101520 0.042100 
-0.062000 0.102911 0.041720 
-0.059355 0.101593 0.041266 
-0.057129 0.101611 0.040982 
-0.059602 0.103675 0.040414 
-0.057303 0.103696 0.040234 
-0.059500 0.101544 0.042482 
-0.057000 0.101561 0.042736 
-0.059750 0.103618 0.041721 
-0.057250 0.103626 0.041848 
-0.064500 0.105625 0.039816 
-0.061750 0.106342 0.039944 
-0.062250 0.107707 0.039055 
-0.059750 0.106350 0.040071 
-0.057250 0.106365 0.040325 
-0.059750 0.107715 0.039182 
-0.057250 0.107730 0.039437 
-0.054750 0.072490 0.040418 
-0.052305 0.072184 0.040735 
-0.054750 0.073969 0.041309 
-0.051770 0.073639 0.041488 
-0.052000 0.073289 0.041563 
-0.054376 0.075008 0.042071 
-0.052000 0.074777 0.042581 
-0.050007 0.072230 0.040555 
-0.047500 0.071842 0.041053 
-0.049463 0.074357 0.040860 
-0.047805 0.075099 0.041058 
-0.050000 0.073299 0.041690 
-0.046750 0.072587 0.041562 
-0.050000 0.074788 0.042708 
-0.047500 0.074745 0.042199 
-0.054750 0.076903 0.042837 
-0.052289 0.077200 0.042865 
-0.054816 0.079252 0.043106 
-0.052517 0.079294 0.042927 
-0.049004 0.076472 0.041043 
-0.047684 0.077180 0.040744 
-0.048667 0.079293 0.041473 
-0.047224 0.079292 0.040926 
-0.049885 0.077199 0.041953 
-0.047250 0.076914 0.042965 
-0.049906 0.079312 0.042318 
-0.047000 0.079059 0.043476 
-0.054750 0.079843 0.044494 
-0.052250 0.079802 0.043985 
-0.049750 0.079812 0.044113 
-0.048250 0.079802 0.043985 
-0.044600 0.071673 0.040954 
-0.042338 0.071710 0.040721 
-0.042069 0.074517 0.041052 
-0.045000 0.071938 0.042196 
-0.042500 0.071938 0.042196 
-0.045000 0.074767 0.042454 
-0.042500 0.074799 0.042835 
-0.040008 0.071753 0.040587 
-0.037746 0.071790 0.040353 
-0.039807 0.074550 0.040818 
-0.037749 0.074564 0.040287 
-0.040000 0.071917 0.041942 
-0.037500 0.071928 0.042069 
-0.040000 0.074777 0.042581 
-0.037500 0.074724 0.041945 
-0.045978 0.077248 0.041470 
-0.041733 0.077328 0.041482 
-0.045288 0.080009 0.040643 
-0.042999 0.078691 0.041368 
-0.044750 0.076861 0.042329 
-0.042750 0.076914 0.042965 
-0.045250 0.079668 0.042332 
-0.042250 0.079699 0.042714 
-0.039897 0.076647 0.041083 
-0.037615 0.077352 0.040420 
-0.037089 0.079458 0.040700 
-0.039750 0.076914 0.042965 
-0.037750 0.076872 0.042456 
-0.040250 0.079720 0.042968 
-0.037500 0.078997 0.042713 
-0.054901 0.081363 0.043377 
-0.052399 0.081421 0.043496 
-0.047178 0.081408 0.041390 
-0.049589 0.081452 0.043178 
-0.048059 0.082134 0.042300 
-0.049320 0.084262 0.043509 
-0.047465 0.084253 0.042680 
-0.051706 0.087745 0.043926 
-0.054848 0.089770 0.043265 
-0.052012 0.089126 0.043446 
-0.046430 0.087009 0.041473 
-0.049390 0.087048 0.043344 
-0.047602 0.087033 0.042416 
-0.050021 0.089125 0.042815 
-0.047550 0.089122 0.042002 
-0.054500 0.082007 0.045260 
-0.052500 0.081967 0.044752 
-0.054750 0.084110 0.045264 
-0.052250 0.084100 0.045137 
-0.050000 0.081916 0.044116 
-0.048000 0.081906 0.043988 
-0.049750 0.084100 0.045137 
-0.047250 0.084069 0.044755 
-0.054750 0.086903 0.045141 
-0.052250 0.086933 0.045523 
-0.054500 0.088996 0.044889 
-0.052500 0.089015 0.045143 
-0.049750 0.086942 0.045650 
-0.047250 0.086893 0.045014 
-0.050000 0.089025 0.045270 
-0.047500 0.088986 0.044761 
-0.044897 0.082112 0.040726 
-0.044898 0.084898 0.040661 
-0.045000 0.081814 0.042844 
-0.042448 0.082235 0.042542 
-0.044750 0.083959 0.043355 
-0.042500 0.084600 0.042593 
-0.037179 0.081552 0.040965 
-0.037527 0.084338 0.041279 
-0.039983 0.082277 0.042605 
-0.037500 0.081885 0.043734 
-0.040209 0.084360 0.042671 
-0.038163 0.083653 0.041693 
-0.045143 0.086311 0.041158 
-0.043418 0.087048 0.041452 
-0.044070 0.088437 0.041353 
-0.043354 0.089853 0.041483 
-0.044250 0.086784 0.043614 
-0.042750 0.086715 0.042723 
-0.044750 0.089557 0.042980 
-0.042250 0.089529 0.042598 
-0.040250 0.086745 0.043104 
-0.036996 0.087194 0.042881 
-0.039686 0.089254 0.042883 
-0.037500 0.088879 0.043361 
-0.045500 0.084710 0.043993 
-0.037750 0.084009 0.043991 
-0.045250 0.086814 0.043995 
-0.046000 0.088937 0.044125 
-0.037500 0.086113 0.043995 
-0.035600 0.072484 0.039492 
-0.032500 0.071809 0.040672 
-0.036238 0.074571 0.039839 
-0.032500 0.074639 0.040929 
-0.035000 0.071906 0.041815 
-0.035000 0.074724 0.041945 
-0.033750 0.073991 0.041563 
-0.030250 0.072458 0.040037 
-0.028000 0.071777 0.040291 
-0.030000 0.074608 0.040548 
-0.028500 0.074639 0.040929 
-0.027250 0.072662 0.042451 
-0.027750 0.074108 0.042961 
-0.032500 0.077469 0.041186 
-0.032750 0.079596 0.041442 
-0.035250 0.076819 0.041821 
-0.033750 0.076798 0.041566 
-0.035250 0.079668 0.042332 
-0.032500 0.080308 0.041570 
-0.030250 0.076736 0.040804 
-0.029000 0.076075 0.041311 
-0.031000 0.078863 0.041060 
-0.029500 0.077511 0.041694 
-0.028500 0.076223 0.043091 
-0.029750 0.079668 0.042332 
-0.027000 0.074947 0.044614 
-0.027750 0.077081 0.044998 
-0.028500 0.079184 0.045002 
-0.026750 0.077217 0.046651 
-0.027750 0.080039 0.046910 
-0.026500 0.072035 0.043339 
-0.025500 0.072186 0.045118 
-0.026250 0.074289 0.045121 
-0.024500 0.072369 0.047277 
-0.024000 0.072444 0.048166 
-0.025250 0.074448 0.047027 
-0.026000 0.076570 0.047285 
-0.036117 0.082946 0.040716 
-0.031750 0.080990 0.041317 
-0.035827 0.083643 0.040682 
-0.035000 0.081824 0.042971 
-0.032500 0.081722 0.041699 
-0.035000 0.084640 0.043102 
-0.032500 0.084550 0.041957 
-0.031250 0.081000 0.041444 
-0.030000 0.081824 0.042971 
-0.030500 0.084610 0.042720 
-0.035250 0.086715 0.042723 
-0.032750 0.086715 0.042723 
-0.035308 0.089316 0.043092 
-0.033047 0.089334 0.042857 
-0.030750 0.086774 0.043486 
-0.031267 0.089354 0.042805 
-0.029500 0.081916 0.044116 
-0.028750 0.081337 0.045641 
-0.029250 0.084110 0.045264 
-0.029000 0.084831 0.045519 
-0.028000 0.082231 0.048059 
-0.028250 0.084251 0.047045 
-0.034250 0.089644 0.044126 
-0.032750 0.089653 0.044253 
-0.029750 0.086824 0.044123 
-0.028750 0.086933 0.045523 
-0.030000 0.088928 0.043998 
-0.028500 0.089034 0.045398 
-0.027750 0.087101 0.047686 
-0.027500 0.089180 0.047307 
-0.026250 0.089974 0.048558 
-0.026658 0.073335 0.051708 
-0.027039 0.074711 0.052004 
-0.027250 0.080211 0.049140 
-0.027477 0.076787 0.052647 
-0.028154 0.080206 0.052909 
-0.027286 0.079579 0.053752 
-0.022750 0.071918 0.050324 
-0.024250 0.074683 0.049969 
-0.023500 0.074004 0.050207 
-0.025512 0.072696 0.052071 
-0.023559 0.071387 0.052303 
-0.025413 0.074071 0.052185 
-0.022750 0.074860 0.052247 
-0.020750 0.072121 0.052842 
-0.021000 0.074248 0.053325 
-0.025500 0.076752 0.049613 
-0.026000 0.079608 0.050458 
-0.024750 0.077621 0.051892 
-0.023500 0.077006 0.052970 
-0.025500 0.079739 0.052256 
-0.024000 0.078434 0.053452 
-0.021750 0.076364 0.053688 
-0.022580 0.072849 0.053707 
-0.024915 0.075530 0.053771 
-0.023086 0.074911 0.054250 
-0.020683 0.072242 0.054285 
-0.018360 0.072335 0.055028 
-0.020708 0.074301 0.054646 
-0.018000 0.074389 0.055124 
-0.025230 0.076908 0.054167 
-0.022840 0.076998 0.055008 
-0.025513 0.079651 0.054577 
-0.022750 0.079236 0.054891 
-0.022323 0.079106 0.056162 
-0.020500 0.077160 0.055008 
-0.018188 0.077120 0.055615 
-0.020750 0.079315 0.055970 
-0.017868 0.079160 0.055595 
-0.020506 0.077783 0.056195 
-0.017750 0.077945 0.056208 
-0.020599 0.079832 0.056456 
-0.018250 0.079386 0.056929 
-0.027000 0.082393 0.050343 
-0.027250 0.084455 0.049867 
-0.027629 0.082280 0.053187 
-0.027627 0.084972 0.052242 
-0.027000 0.086535 0.049632 
-0.027878 0.085617 0.051415 
-0.026965 0.081633 0.053733 
-0.026500 0.081031 0.050820 
-0.026250 0.084512 0.050706 
-0.025750 0.081822 0.052139 
-0.025500 0.083954 0.052742 
-0.026250 0.087257 0.049993 
-0.025500 0.089384 0.050354 
-0.025000 0.086725 0.052507 
-0.022867 0.087140 0.053407 
-0.024750 0.088774 0.051791 
-0.023086 0.089164 0.052594 
-0.020544 0.089907 0.053201 
-0.025124 0.081708 0.054656 
-0.023250 0.082051 0.055375 
-0.025142 0.083729 0.054141 
-0.023214 0.084468 0.054733 
-0.021935 0.081156 0.056241 
-0.019933 0.081861 0.056056 
-0.018423 0.081865 0.055607 
-0.020345 0.084541 0.055391 
-0.018361 0.084582 0.055636 
-0.020250 0.082161 0.056933 
-0.018250 0.082212 0.057652 
-0.020500 0.084226 0.056696 
-0.018000 0.084284 0.057535 
-0.024250 0.086108 0.053704 
-0.023000 0.086859 0.054544 
-0.022250 0.088912 0.053947 
-0.020362 0.086557 0.054875 
-0.018176 0.086612 0.055418 
-0.020750 0.088973 0.054906 
-0.018107 0.089308 0.054570 
-0.020250 0.086284 0.056340 
-0.018250 0.086324 0.056939 
-0.017250 0.089057 0.056223 
-0.054664 0.091874 0.043043 
-0.052305 0.091230 0.043412 
-0.054409 0.093984 0.042926 
-0.052721 0.094046 0.043625 
-0.049956 0.091937 0.042846 
-0.047418 0.091937 0.042132 
-0.049634 0.094047 0.042828 
-0.047711 0.094038 0.042098 
-0.054942 0.099530 0.041129 
-0.054775 0.096767 0.042326 
-0.051973 0.096836 0.042883 
-0.054500 0.098741 0.042861 
-0.052500 0.098749 0.042988 
-0.050058 0.099603 0.041191 
-0.047181 0.098936 0.041433 
-0.050062 0.096142 0.042596 
-0.047456 0.096143 0.041980 
-0.049750 0.099473 0.043243 
-0.047000 0.098741 0.042861 
-0.054500 0.091819 0.044891 
-0.052250 0.091075 0.044381 
-0.055250 0.093919 0.044638 
-0.052250 0.093873 0.044002 
-0.050000 0.091763 0.044127 
-0.048250 0.091047 0.043999 
-0.049750 0.093919 0.044638 
-0.048000 0.094606 0.044384 
-0.051500 0.095992 0.044003 
-0.050000 0.096028 0.044512 
-0.048000 0.096010 0.044258 
-0.044879 0.091936 0.041417 
-0.042909 0.091249 0.041217 
-0.044624 0.094039 0.041300 
-0.042777 0.094058 0.041347 
-0.045000 0.091679 0.042982 
-0.042500 0.091650 0.042600 
-0.044750 0.093809 0.043111 
-0.042750 0.093754 0.042347 
-0.040000 0.091669 0.042855 
-0.037795 0.091391 0.043391 
-0.039750 0.093781 0.042729 
-0.037520 0.094164 0.042842 
-0.044627 0.096842 0.041232 
-0.042502 0.096845 0.040799 
-0.044575 0.098933 0.040817 
-0.042517 0.098930 0.040285 
-0.044750 0.096619 0.042859 
-0.042750 0.096584 0.042350 
-0.045000 0.098723 0.042606 
-0.042500 0.098698 0.042225 
-0.040384 0.096877 0.041242 
-0.037564 0.097604 0.041369 
-0.039784 0.098965 0.040743 
-0.037389 0.098981 0.040706 
-0.039750 0.096575 0.042223 
-0.037750 0.096619 0.042859 
-0.040000 0.098663 0.041716 
-0.037500 0.098706 0.042352 
-0.037000 0.091753 0.044000 
-0.036750 0.093873 0.044002 
-0.054632 0.101610 0.040205 
-0.052262 0.101638 0.040131 
-0.054664 0.103705 0.039667 
-0.052000 0.104255 0.040577 
-0.055000 0.101553 0.042609 
-0.052250 0.100812 0.042100 
-0.055250 0.103610 0.041594 
-0.049605 0.101689 0.040477 
-0.047387 0.101733 0.041068 
-0.049637 0.103778 0.039939 
-0.047608 0.103814 0.040251 
-0.050000 0.101528 0.042227 
-0.047750 0.100820 0.042227 
-0.046500 0.102902 0.041593 
-0.054750 0.106357 0.040198 
-0.052250 0.106342 0.039944 
-0.054750 0.107737 0.039564 
-0.052250 0.107722 0.039309 
-0.049250 0.106319 0.039562 
-0.047250 0.106357 0.040198 
-0.049000 0.108417 0.039056 
-0.047500 0.108424 0.039183 
-0.044848 0.101725 0.040353 
-0.042667 0.101012 0.039574 
-0.045276 0.103823 0.040121 
-0.042500 0.104271 0.040831 
-0.045000 0.101511 0.041973 
-0.043000 0.101503 0.041846 
-0.044750 0.103610 0.041594 
-0.043500 0.102902 0.041593 
-0.040000 0.101437 0.040828 
-0.037674 0.101048 0.039797 
-0.040250 0.103506 0.039940 
-0.037750 0.103506 0.039940 
-0.037250 0.100787 0.041718 
-0.044750 0.106373 0.040452 
-0.042750 0.106357 0.040198 
-0.045000 0.108424 0.039183 
-0.042750 0.107730 0.039437 
-0.040500 0.105586 0.039180 
-0.035331 0.091421 0.043453 
-0.033206 0.091428 0.043020 
-0.035268 0.094210 0.043483 
-0.032669 0.094244 0.043744 
-0.029375 0.091482 0.043312 
-0.028394 0.092156 0.042517 
-0.030266 0.094234 0.042831 
-0.027870 0.094256 0.042795 
-0.035664 0.099702 0.041000 
-0.031700 0.099744 0.041490 
-0.035216 0.096286 0.043068 
-0.032820 0.096305 0.043031 
-0.035000 0.098749 0.042988 
-0.033039 0.098365 0.042220 
-0.030214 0.096306 0.042416 
-0.028017 0.097054 0.043403 
-0.030218 0.099086 0.042347 
-0.027553 0.099117 0.042706 
-0.035000 0.091800 0.044636 
-0.033000 0.091791 0.044509 
-0.034750 0.093909 0.044511 
-0.032750 0.093909 0.044511 
-0.030500 0.091763 0.044127 
-0.027500 0.091819 0.044891 
-0.030250 0.093919 0.044638 
-0.027750 0.093946 0.045020 
-0.027000 0.090569 0.047053 
-0.035000 0.095992 0.044003 
-0.032750 0.096734 0.044513 
-0.032250 0.098129 0.044260 
-0.030250 0.096751 0.044767 
-0.028000 0.096045 0.044767 
-0.030250 0.098137 0.044387 
-0.026750 0.099524 0.044006 
-0.024532 0.093596 0.042823 
-0.023559 0.094301 0.042904 
-0.021625 0.095002 0.042619 
-0.025161 0.096391 0.043614 
-0.022900 0.096402 0.043379 
-0.025503 0.099143 0.043050 
-0.022694 0.099152 0.042731 
-0.020775 0.096405 0.042946 
-0.018379 0.096425 0.042910 
-0.020299 0.099167 0.042694 
-0.017836 0.099187 0.042757 
-0.026250 0.092590 0.045782 
-0.025250 0.093973 0.045401 
-0.024000 0.094688 0.045529 
-0.025500 0.092044 0.047945 
-0.023725 0.092436 0.048475 
-0.025000 0.093378 0.046928 
-0.023000 0.094851 0.047819 
-0.020066 0.093852 0.048484 
-0.018342 0.094568 0.048778 
-0.025250 0.096699 0.044004 
-0.022750 0.096760 0.044895 
-0.025500 0.098852 0.044514 
-0.023000 0.098869 0.044769 
-0.022250 0.095456 0.046420 
-0.020750 0.096787 0.045276 
-0.018500 0.097510 0.045531 
-0.020500 0.098852 0.044514 
-0.017750 0.098181 0.045023 
-0.020500 0.096188 0.046802 
-0.018750 0.096996 0.048322 
-0.035334 0.101771 0.040106 
-0.032601 0.101801 0.040564 
-0.035250 0.103530 0.040322 
-0.033000 0.104263 0.040704 
-0.034750 0.100804 0.041972 
-0.032500 0.101536 0.042355 
-0.032000 0.102919 0.041847 
-0.030552 0.101822 0.040907 
-0.028772 0.101831 0.040855 
-0.030424 0.103879 0.039716 
-0.028375 0.103898 0.040059 
-0.030500 0.101561 0.042736 
-0.028000 0.101586 0.043118 
-0.030750 0.103618 0.041721 
-0.027750 0.103642 0.042102 
-0.035000 0.105578 0.039053 
-0.032750 0.106319 0.039562 
-0.030250 0.106350 0.040071 
-0.027750 0.106373 0.040452 
-0.030250 0.107715 0.039182 
-0.027500 0.108432 0.039310 
-0.026230 0.102559 0.041461 
-0.025372 0.103937 0.040913 
-0.022707 0.103959 0.041272 
-0.025038 0.101204 0.042353 
-0.023326 0.101210 0.042201 
-0.025250 0.103683 0.042738 
-0.023250 0.103715 0.043247 
-0.018428 0.102597 0.041366 
-0.020244 0.103972 0.041334 
-0.018397 0.103982 0.041380 
-0.020180 0.101235 0.042378 
-0.018122 0.101230 0.041846 
-0.020250 0.103707 0.043120 
-0.018250 0.103723 0.043374 
-0.025110 0.105994 0.039919 
-0.022925 0.106017 0.040461 
-0.025500 0.108476 0.040073 
-0.023000 0.108514 0.040709 
-0.025000 0.105750 0.041850 
-0.023000 0.105773 0.042231 
-0.020856 0.106715 0.040374 
-0.018123 0.106735 0.040831 
-0.020614 0.108088 0.039810 
-0.018342 0.108792 0.040020 
-0.020500 0.105789 0.042486 
-0.018250 0.106488 0.042359 
-0.020750 0.107858 0.041598 
-0.018000 0.108566 0.041598 
-0.025250 0.100937 0.044007 
-0.022750 0.100954 0.044262 
-0.020750 0.100954 0.044262 
-0.024750 0.091440 0.049516 
-0.022933 0.091818 0.050094 
-0.022500 0.093591 0.050236 
-0.022750 0.091594 0.052032 
-0.021277 0.092532 0.050289 
-0.020507 0.093219 0.050072 
-0.018437 0.093925 0.049986 
-0.020708 0.091232 0.052042 
-0.018165 0.091970 0.052649 
-0.020500 0.093698 0.052033 
-0.018250 0.094449 0.052871 
-0.020250 0.095664 0.049639 
-0.018000 0.096394 0.050118 
-0.017750 0.095781 0.051675 
-0.020000 0.091034 0.054307 
-0.018250 0.091763 0.054787 
-0.017750 0.093119 0.054069 
0.021177 0.033027 0.023364 
0.019716 0.033228 0.026544 
0.020616 0.033155 0.025202 
0.022145 0.034704 0.026522 
0.018742 0.033362 0.028663 
0.020406 0.034063 0.027982 
0.021035 0.034815 0.028443 
0.018730 0.033504 0.030418 
0.020899 0.035660 0.030444 
0.018027 0.033682 0.032935 
0.019290 0.035113 0.032980 
0.020060 0.035814 0.032762 
0.021674 0.037156 0.031548 
0.021471 0.037988 0.033450 
0.017189 0.033837 0.035253 
0.016073 0.034021 0.038052 
0.016911 0.034732 0.037933 
0.017331 0.033787 0.034574 
0.018655 0.035299 0.035596 
0.020060 0.036678 0.034962 
0.017970 0.036127 0.037680 
0.019652 0.037478 0.036566 
0.020842 0.038101 0.035189 
0.021499 0.040224 0.035662 
0.018684 0.037539 0.037808 
0.021500 0.037740 0.038657 
0.019082 0.040341 0.038328 
0.020254 0.040312 0.037384 
0.016889 0.043747 0.039029 
0.017110 0.044432 0.038894 
0.021608 0.042332 0.036218 
0.021870 0.045112 0.036540 
0.018869 0.043051 0.037955 
0.020590 0.043035 0.036928 
0.018775 0.045127 0.038212 
0.020852 0.045815 0.037249 
0.019279 0.046571 0.038920 
0.021232 0.047959 0.038203 
0.021804 0.049410 0.039010 
0.031179 0.033542 0.016274 
0.030686 0.033680 0.018211 
0.033416 0.033977 0.012000 
0.032566 0.033402 0.013873 
0.035685 0.034846 0.013090 
0.038299 0.035697 0.013799 
0.039477 0.036464 0.014177 
0.040333 0.036969 0.011426 
0.040796 0.037181 0.013877 
0.032775 0.034234 0.015493 
0.032973 0.034337 0.016669 
0.035118 0.035043 0.015805 
0.033793 0.035262 0.019183 
0.036209 0.036009 0.018717 
0.037535 0.035791 0.015339 
0.039335 0.036512 0.014856 
0.037806 0.036698 0.017936 
0.040438 0.037337 0.016013 
0.037387 0.036774 0.019095 
0.040845 0.038262 0.018809 
0.045391 0.040048 0.004128 
0.047067 0.041477 0.003891 
0.044517 0.038879 0.007312 
0.043260 0.038240 0.008590 
0.044641 0.039036 0.009266 
0.045756 0.039723 0.008667 
0.047772 0.041199 0.008927 
0.047288 0.042167 0.003756 
0.050487 0.044341 0.003517 
0.050020 0.043228 0.007297 
0.051153 0.044571 0.006266 
0.048745 0.041931 0.009008 
0.049793 0.042606 0.008310 
0.051327 0.044075 0.008752 
0.051484 0.045668 0.002286 
0.051750 0.045772 0.003562 
0.052844 0.048493 0.002442 
0.053151 0.049853 0.001974 
0.052617 0.047868 0.003455 
0.053552 0.049973 0.003448 
0.052484 0.046010 0.006410 
0.052590 0.045502 0.008797 
0.053136 0.047350 0.005560 
0.053894 0.048179 0.007098 
0.054558 0.050240 0.006693 
0.053802 0.047575 0.008309 
0.054024 0.048262 0.008174 
0.054755 0.050332 0.007869 
0.042743 0.037785 0.011837 
0.045744 0.039859 0.010423 
0.042454 0.037950 0.014073 
0.044180 0.038729 0.014368 
0.045936 0.040026 0.012476 
0.046650 0.040581 0.010403 
0.047243 0.040876 0.013930 
0.042238 0.038057 0.015530 
0.046047 0.040318 0.016185 
0.043126 0.038985 0.018144 
0.044026 0.039774 0.019002 
0.045622 0.040461 0.018222 
0.047027 0.040981 0.015388 
0.046737 0.041143 0.017623 
0.048807 0.042008 0.009985 
0.049843 0.042816 0.011042 
0.048851 0.042287 0.013594 
0.049824 0.043017 0.013675 
0.051432 0.044425 0.013339 
0.048136 0.041732 0.015667 
0.049948 0.043170 0.015629 
0.051340 0.044679 0.016750 
0.048130 0.042655 0.018744 
0.049313 0.043346 0.018245 
0.050712 0.044788 0.018489 
0.052646 0.045642 0.010651 
0.052203 0.045124 0.013121 
0.053699 0.047102 0.011276 
0.054486 0.048457 0.010625 
0.055059 0.049911 0.011432 
0.053613 0.047287 0.013809 
0.054111 0.047946 0.013194 
0.054911 0.050019 0.012989 
0.052117 0.045311 0.015655 
0.052000 0.045718 0.018484 
0.053601 0.047416 0.015565 
0.053957 0.048119 0.015629 
0.054825 0.050200 0.015522 
0.053169 0.047617 0.018479 
0.054750 0.047901 0.018610 
0.053804 0.049001 0.018491 
0.054439 0.050384 0.018504 
0.057250 0.050733 0.018101 
0.054086 0.051958 0.001967 
0.055141 0.056050 0.001646 
0.054506 0.052725 0.003009 
0.055659 0.055530 0.003749 
0.055357 0.056787 0.002390 
0.055147 0.059476 0.002021 
0.055776 0.057548 0.003432 
0.054950 0.060216 0.003047 
0.054950 0.052265 0.005891 
0.055819 0.054318 0.005788 
0.055826 0.052448 0.008061 
0.056596 0.055773 0.006895 
0.056405 0.053814 0.007992 
0.056910 0.055230 0.008701 
0.056256 0.058374 0.005450 
0.056281 0.059788 0.006341 
0.056645 0.057777 0.006477 
0.056472 0.059107 0.006194 
0.057095 0.057248 0.008482 
0.057013 0.059993 0.009188 
0.042237 0.069328 0.001056 
0.042697 0.069476 0.003504 
0.042954 0.069603 0.005654 
0.043205 0.069779 0.008682 
0.054784 0.061497 0.001886 
0.054925 0.062277 0.003408 
0.054758 0.064374 0.004447 
0.055849 0.061793 0.006106 
0.054887 0.064443 0.005523 
0.056205 0.063298 0.008371 
0.055428 0.065315 0.008516 
0.056717 0.062009 0.009151 
0.053634 0.067222 0.007173 
0.054239 0.066534 0.006744 
0.053627 0.067273 0.008050 
0.054225 0.066637 0.008498 
0.056079 0.052671 0.011091 
0.055772 0.052163 0.013760 
0.056443 0.053300 0.010278 
0.057034 0.055368 0.010655 
0.056357 0.053475 0.012812 
0.056880 0.055531 0.013089 
0.057144 0.057432 0.011214 
0.057204 0.060132 0.011241 
0.056989 0.057590 0.013647 
0.057105 0.059591 0.013328 
0.055550 0.052323 0.016095 
0.056294 0.055057 0.016237 
0.055231 0.052444 0.018287 
0.055610 0.055173 0.018782 
0.056436 0.055015 0.015558 
0.057500 0.051514 0.018860 
0.056324 0.056402 0.016250 
0.055861 0.057185 0.018661 
0.055984 0.059878 0.018781 
0.056699 0.057731 0.015882 
0.056883 0.059737 0.015662 
0.060500 0.059856 0.016940 
0.056332 0.057792 0.017119 
0.059750 0.057783 0.017579 
0.056363 0.059828 0.017561 
0.060000 0.059913 0.017575 
0.043184 0.069927 0.011312 
0.043306 0.070040 0.013264 
0.044508 0.068712 0.013282 
0.050019 0.069397 0.011143 
0.049382 0.069531 0.013757 
0.043581 0.068166 0.015931 
0.043063 0.069513 0.016028 
0.042846 0.066942 0.018432 
0.046297 0.068410 0.019023 
0.042359 0.069639 0.018543 
0.048136 0.069600 0.015479 
0.050650 0.069018 0.016074 
0.047394 0.068427 0.018857 
0.050322 0.067843 0.019171 
0.048104 0.069049 0.017664 
0.049065 0.069051 0.017299 
0.055753 0.065459 0.010767 
0.055868 0.065632 0.013596 
0.056907 0.062143 0.011204 
0.056475 0.064140 0.010968 
0.056962 0.062262 0.013057 
0.056590 0.064317 0.013798 
0.052732 0.068083 0.010714 
0.054686 0.066793 0.010947 
0.051721 0.068726 0.010547 
0.053185 0.068287 0.014039 
0.054733 0.066956 0.013677 
0.051626 0.068920 0.013956 
0.056270 0.063101 0.016019 
0.055356 0.065090 0.015965 
0.055788 0.062544 0.018432 
0.053491 0.065892 0.018981 
0.054892 0.064544 0.018405 
0.056721 0.061758 0.015823 
0.060750 0.061975 0.016809 
0.056362 0.063701 0.014809 
0.056328 0.061166 0.017480 
0.060250 0.062065 0.017824 
0.060250 0.064970 0.018579 
0.053018 0.067725 0.016026 
0.054634 0.066404 0.015763 
0.052505 0.067179 0.018394 
0.060250 0.067579 0.015907 
0.058750 0.070410 0.015773 
0.060000 0.069710 0.015902 
0.060000 0.067022 0.017686 
0.058000 0.069969 0.018951 
0.059000 0.068539 0.018826 
0.023792 0.033010 0.021874 
0.024686 0.033009 0.021410 
0.023385 0.033816 0.023478 
0.025586 0.033806 0.022269 
0.024216 0.034601 0.024237 
0.025937 0.034586 0.023210 
0.028201 0.033789 0.020778 
0.029786 0.033753 0.019553 
0.028687 0.034591 0.021918 
0.030753 0.034559 0.020511 
0.028280 0.035394 0.023522 
0.030136 0.035401 0.022694 
0.028750 0.036906 0.024068 
0.031000 0.037599 0.023814 
0.022281 0.033857 0.024521 
0.024080 0.035447 0.026238 
0.025813 0.036158 0.025656 
0.023260 0.036256 0.028123 
0.028150 0.036169 0.024646 
0.026520 0.037644 0.026661 
0.024245 0.037714 0.028648 
0.026000 0.038093 0.028507 
0.026278 0.039843 0.028475 
0.028000 0.037812 0.025843 
0.030844 0.037750 0.025899 
0.031000 0.039316 0.026476 
0.028250 0.038730 0.027745 
0.029769 0.039169 0.026954 
0.028010 0.040551 0.027893 
0.030409 0.040639 0.027860 
0.033096 0.035367 0.020823 
0.035513 0.036113 0.020356 
0.032892 0.036200 0.022724 
0.036413 0.036906 0.021215 
0.033750 0.038266 0.023306 
0.035999 0.037775 0.023696 
0.036750 0.039811 0.024319 
0.038213 0.037625 0.020732 
0.040216 0.038376 0.020547 
0.040500 0.040231 0.021402 
0.037799 0.038493 0.023213 
0.037750 0.039733 0.023558 
0.040844 0.039983 0.023209 
0.032903 0.037788 0.025369 
0.035591 0.038573 0.025300 
0.033250 0.040034 0.026475 
0.035750 0.039943 0.025587 
0.033136 0.040056 0.027879 
0.035546 0.040866 0.028290 
0.038000 0.040649 0.025460 
0.040023 0.040785 0.025094 
0.037335 0.040861 0.027363 
0.028526 0.042723 0.029045 
0.030173 0.042765 0.028797 
0.029924 0.044167 0.029289 
0.033000 0.042383 0.028375 
0.035500 0.042383 0.028375 
0.040500 0.042151 0.026092 
0.038000 0.042331 0.027867 
0.040372 0.043047 0.027775 
0.041042 0.044483 0.028726 
0.022292 0.036317 0.029365 
0.023000 0.037802 0.030370 
0.026250 0.038983 0.030155 
0.024410 0.039975 0.031059 
0.025389 0.040637 0.030261 
0.024000 0.038587 0.033200 
0.023368 0.040093 0.033079 
0.025500 0.040042 0.033451 
0.028250 0.040402 0.030026 
0.029500 0.041066 0.029517 
0.022479 0.040886 0.034865 
0.026000 0.041614 0.034843 
0.022750 0.038357 0.037767 
0.023750 0.039806 0.038018 
0.024750 0.041202 0.037761 
0.026596 0.042775 0.030652 
0.024229 0.042246 0.033850 
0.025486 0.042882 0.032572 
0.026347 0.045032 0.033344 
0.027643 0.043448 0.029954 
0.030750 0.043267 0.030022 
0.028216 0.044904 0.030760 
0.031250 0.044762 0.030654 
0.028000 0.042872 0.033192 
0.027327 0.045694 0.032546 
0.030000 0.045704 0.032934 
0.029422 0.047037 0.031151 
0.030537 0.047718 0.030552 
0.031608 0.049828 0.030744 
0.028466 0.047815 0.032837 
0.031250 0.047872 0.033184 
0.028970 0.049256 0.033545 
0.030442 0.050639 0.033010 
0.023069 0.042997 0.035239 
0.026250 0.042404 0.035603 
0.023659 0.045106 0.035612 
0.025736 0.045795 0.034649 
0.024500 0.042005 0.038647 
0.025500 0.043336 0.037757 
0.024500 0.046307 0.039018 
0.025750 0.045508 0.038133 
0.027750 0.043766 0.034966 
0.028250 0.045242 0.035471 
0.027250 0.045369 0.036738 
0.023835 0.047220 0.036268 
0.026116 0.047937 0.035603 
0.026553 0.049368 0.036211 
0.023088 0.047962 0.037375 
0.026000 0.047654 0.038255 
0.023604 0.050122 0.038527 
0.025738 0.050099 0.037219 
0.029000 0.047443 0.036100 
0.030250 0.048032 0.034832 
0.028013 0.050032 0.035232 
0.031000 0.050232 0.035461 
0.027750 0.048266 0.037239 
0.028000 0.050437 0.037615 
0.030250 0.051077 0.036853 
0.033114 0.042931 0.029558 
0.035853 0.043068 0.030022 
0.033000 0.045428 0.030145 
0.035345 0.045146 0.030561 
0.037544 0.043098 0.029840 
0.039325 0.043794 0.029330 
0.038000 0.045478 0.030653 
0.040500 0.045440 0.030272 
0.033250 0.047662 0.031030 
0.035335 0.047881 0.030486 
0.032656 0.050500 0.030046 
0.035518 0.049927 0.030263 
0.032500 0.048488 0.032169 
0.033000 0.049978 0.032800 
0.034500 0.051347 0.032164 
0.038017 0.047957 0.030867 
0.040311 0.047993 0.030680 
0.038204 0.050004 0.030651 
0.040754 0.050062 0.030840 
0.038500 0.048463 0.031916 
0.040250 0.047748 0.031917 
0.038500 0.049905 0.032040 
0.040500 0.049942 0.032420 
0.032250 0.050836 0.034319 
0.042084 0.039104 0.020164 
0.042984 0.039893 0.021023 
0.044580 0.040579 0.020242 
0.042712 0.040710 0.022825 
0.044308 0.041395 0.022044 
0.042304 0.041505 0.024429 
0.046114 0.042043 0.020684 
0.043000 0.041829 0.022923 
0.045152 0.042891 0.023248 
0.046250 0.044336 0.023939 
0.047365 0.042745 0.020284 
0.048486 0.044212 0.021008 
0.050091 0.045612 0.020667 
0.047250 0.043953 0.022541 
0.047711 0.044999 0.022960 
0.049750 0.045382 0.022413 
0.050761 0.047046 0.021618 
0.048730 0.047128 0.023964 
0.050255 0.047797 0.023079 
0.051019 0.049897 0.023707 
0.043136 0.042989 0.025617 
0.044725 0.043666 0.024825 
0.043742 0.044419 0.026473 
0.045267 0.045088 0.025588 
0.042153 0.043743 0.027265 
0.043000 0.045239 0.028244 
0.044750 0.045906 0.027736 
0.047250 0.045694 0.025582 
0.046223 0.047210 0.026498 
0.043523 0.047273 0.028751 
0.045048 0.047941 0.027865 
0.045747 0.050033 0.028400 
0.047812 0.047885 0.025707 
0.050000 0.047814 0.025199 
0.048226 0.049995 0.026711 
0.049750 0.049958 0.025397 
0.047500 0.048071 0.027860 
0.047400 0.050713 0.027703 
0.049750 0.050200 0.027605 
0.051500 0.045892 0.020258 
0.053000 0.047361 0.020511 
0.055000 0.048781 0.020257 
0.052921 0.049805 0.021173 
0.055250 0.049564 0.020890 
0.052250 0.048339 0.023171 
0.053250 0.049804 0.023424 
0.054500 0.050441 0.022536 
0.056750 0.050899 0.019875 
0.052500 0.050667 0.024943 
0.042250 0.046119 0.029891 
0.043250 0.047650 0.030903 
0.045000 0.048304 0.030268 
0.042791 0.050072 0.030277 
0.045500 0.049809 0.031026 
0.042500 0.048451 0.031789 
0.042500 0.049942 0.032420 
0.044750 0.050596 0.031785 
0.046750 0.048935 0.029380 
0.047250 0.050440 0.030139 
0.035187 0.053272 0.029258 
0.035852 0.055282 0.028856 
0.037702 0.055344 0.028905 
0.040003 0.056073 0.029158 
0.036171 0.057307 0.028835 
0.036712 0.060001 0.028679 
0.038716 0.059903 0.026295 
0.039949 0.059942 0.026328 
0.038440 0.057301 0.027725 
0.040126 0.057383 0.028420 
0.037267 0.059954 0.027719 
0.040683 0.059334 0.026975 
0.041489 0.065758 0.021795 
0.041070 0.063181 0.023903 
0.040502 0.065160 0.023468 
0.041248 0.067078 0.021412 
0.041586 0.069759 0.020959 
0.040618 0.067165 0.023150 
0.040746 0.069871 0.023276 
0.038641 0.062581 0.026123 
0.040553 0.061887 0.024949 
0.038892 0.064599 0.026003 
0.039861 0.064549 0.024761 
0.037462 0.062664 0.027944 
0.041000 0.062357 0.029118 
0.037782 0.064688 0.027923 
0.041250 0.064431 0.028609 
0.039223 0.067324 0.026426 
0.039643 0.067266 0.025268 
0.039197 0.069362 0.026786 
0.039906 0.069983 0.025593 
0.038180 0.067418 0.028446 
0.041250 0.067278 0.028861 
0.038431 0.069432 0.028325 
0.041500 0.069418 0.029113 
0.031156 0.052044 0.033138 
0.024371 0.051521 0.038732 
0.026088 0.052207 0.038129 
0.026310 0.054288 0.038852 
0.028980 0.052163 0.036158 
0.030313 0.052815 0.034991 
0.031012 0.054881 0.035527 
0.027741 0.052888 0.037431 
0.030250 0.052563 0.037612 
0.028441 0.054953 0.037967 
0.031000 0.054755 0.038501 
0.031235 0.056932 0.036250 
0.031742 0.058966 0.036504 
0.028343 0.057668 0.038650 
0.030473 0.057642 0.037336 
0.028722 0.059691 0.038716 
0.030502 0.059676 0.037778 
0.033313 0.052614 0.030519 
0.035719 0.052629 0.029608 
0.033904 0.054689 0.030894 
0.034816 0.055328 0.029998 
0.033750 0.052183 0.033558 
0.035000 0.052781 0.032418 
0.033136 0.055461 0.032858 
0.035750 0.054954 0.033051 
0.037942 0.052717 0.030205 
0.040556 0.052777 0.030488 
0.038000 0.055484 0.031150 
0.040486 0.054774 0.029897 
0.038500 0.052722 0.031784 
0.040500 0.052757 0.032164 
0.037000 0.055542 0.031783 
0.040750 0.054849 0.031910 
0.035339 0.057379 0.030275 
0.036147 0.060102 0.030511 
0.033771 0.057507 0.033300 
0.036500 0.057092 0.033305 
0.034215 0.059536 0.033461 
0.035070 0.060175 0.032482 
0.038750 0.057588 0.031022 
0.040250 0.057588 0.031022 
0.039000 0.059716 0.031148 
0.040500 0.059613 0.030007 
0.037250 0.057750 0.032797 
0.038000 0.059853 0.032670 
0.033000 0.053030 0.035079 
0.033500 0.054485 0.035586 
0.035000 0.055823 0.034826 
0.032750 0.055341 0.037234 
0.032503 0.057565 0.034990 
0.035500 0.057301 0.035587 
0.032946 0.059593 0.035150 
0.036250 0.059424 0.035714 
0.033500 0.057521 0.037996 
0.034750 0.058120 0.036855 
0.033750 0.059699 0.038758 
0.035000 0.060299 0.037617 
0.037000 0.060059 0.034953 
0.031859 0.064338 0.036556 
0.028781 0.062377 0.038742 
0.030561 0.062362 0.037803 
0.029095 0.064393 0.038714 
0.030492 0.065037 0.037641 
0.029282 0.067089 0.038927 
0.030935 0.067064 0.037801 
0.029405 0.069780 0.039046 
0.031121 0.069759 0.038014 
0.036241 0.062142 0.031047 
0.036521 0.064809 0.030511 
0.034117 0.062250 0.034144 
0.035100 0.062210 0.032924 
0.034176 0.064937 0.034169 
0.035223 0.064903 0.033044 
0.036919 0.063409 0.029350 
0.040000 0.062504 0.030767 
0.036807 0.064792 0.030042 
0.040250 0.064576 0.030258 
0.038750 0.061979 0.032797 
0.039500 0.062628 0.032163 
0.038750 0.064888 0.033812 
0.039750 0.064798 0.032797 
0.036551 0.066844 0.030952 
0.036739 0.069542 0.031166 
0.034171 0.067619 0.034102 
0.035410 0.066910 0.032829 
0.034200 0.068962 0.034114 
0.035469 0.069597 0.032854 
0.037343 0.067480 0.029880 
0.040500 0.066682 0.030131 
0.037658 0.069498 0.029853 
0.040500 0.069581 0.031018 
0.039000 0.067023 0.034066 
0.039750 0.067629 0.032924 
0.039000 0.069819 0.033812 
0.040000 0.069700 0.032415 
0.033133 0.062291 0.035363 
0.036750 0.062284 0.036222 
0.033128 0.064972 0.035295 
0.036750 0.063726 0.036604 
0.031958 0.063005 0.036730 
0.035750 0.062397 0.037491 
0.035500 0.064574 0.038254 
0.037500 0.062909 0.035335 
0.037750 0.065044 0.035589 
0.032966 0.066990 0.035455 
0.033630 0.069685 0.035481 
0.034422 0.070321 0.034408 
0.032267 0.067703 0.036634 
0.036000 0.067342 0.037748 
0.032710 0.069729 0.036794 
0.035750 0.069441 0.037622 
0.038000 0.067133 0.035336 
0.038000 0.069938 0.035209 
0.045585 0.052794 0.028988 
0.045900 0.054822 0.028960 
0.048925 0.051381 0.026818 
0.050607 0.052723 0.025704 
0.050637 0.054769 0.026145 
0.047843 0.052779 0.027862 
0.050500 0.052414 0.028490 
0.047745 0.054813 0.028116 
0.049525 0.054799 0.027177 
0.042344 0.060697 0.026717 
0.042897 0.058103 0.028474 
0.045702 0.057484 0.028609 
0.043019 0.059412 0.027736 
0.045440 0.059452 0.027737 
0.050695 0.057453 0.026170 
0.048111 0.060120 0.026758 
0.050433 0.060110 0.025725 
0.047675 0.057486 0.027953 
0.049456 0.057472 0.027014 
0.047541 0.059464 0.027267 
0.053713 0.052567 0.021385 
0.054347 0.052538 0.020541 
0.053807 0.054621 0.021921 
0.054947 0.055242 0.020472 
0.052381 0.052622 0.022981 
0.055750 0.052648 0.023420 
0.052824 0.054662 0.023141 
0.055750 0.054146 0.024306 
0.057250 0.052412 0.020886 
0.058250 0.055293 0.021388 
0.059000 0.055863 0.019866 
0.057000 0.053250 0.022279 
0.057250 0.055445 0.023036 
0.054913 0.057271 0.020820 
0.054972 0.059957 0.020845 
0.053203 0.057375 0.023636 
0.054122 0.057329 0.022322 
0.053133 0.060049 0.023473 
0.054117 0.060008 0.022253 
0.058750 0.056710 0.021386 
0.059250 0.058047 0.020496 
0.059500 0.060197 0.020746 
0.057500 0.057615 0.023540 
0.057750 0.059750 0.023664 
0.059000 0.060310 0.022014 
0.053000 0.052200 0.026209 
0.054250 0.052813 0.025194 
0.051556 0.055413 0.025259 
0.055000 0.054993 0.025826 
0.052250 0.053037 0.027602 
0.053000 0.055215 0.028234 
0.054250 0.055840 0.027346 
0.052220 0.057416 0.024856 
0.055750 0.057080 0.025443 
0.052086 0.060084 0.024599 
0.056000 0.059236 0.025821 
0.053250 0.057369 0.028613 
0.054250 0.057288 0.027726 
0.053250 0.060217 0.028865 
0.054750 0.060114 0.027723 
0.056500 0.057718 0.024682 
0.056750 0.059875 0.025060 
0.042390 0.065700 0.020454 
0.041754 0.063207 0.024018 
0.042888 0.064520 0.022989 
0.045366 0.065288 0.023499 
0.050982 0.065967 0.021514 
0.050742 0.062734 0.024343 
0.047677 0.065327 0.023338 
0.050289 0.064688 0.023190 
0.041736 0.067027 0.020352 
0.045637 0.067148 0.020747 
0.041796 0.069731 0.020380 
0.045750 0.070850 0.020982 
0.046161 0.066561 0.021973 
0.045250 0.069648 0.023525 
0.047554 0.067204 0.020895 
0.050162 0.067233 0.020281 
0.047250 0.070882 0.021363 
0.047394 0.066594 0.022005 
0.048000 0.070313 0.023015 
0.050000 0.070378 0.023778 
0.043030 0.062660 0.025459 
0.045045 0.062710 0.025751 
0.043750 0.065678 0.026704 
0.045645 0.064020 0.024826 
0.042750 0.062985 0.028229 
0.044750 0.063052 0.028990 
0.042750 0.064353 0.027720 
0.045500 0.065071 0.027847 
0.047850 0.062089 0.025885 
0.049823 0.062089 0.025228 
0.047874 0.064041 0.024544 
0.051250 0.063075 0.029244 
0.048000 0.065115 0.028354 
0.050500 0.065115 0.028354 
0.043500 0.067743 0.026067 
0.045250 0.067014 0.025814 
0.043250 0.069886 0.026319 
0.044500 0.069027 0.024541 
0.042250 0.067168 0.027591 
0.046500 0.066417 0.027084 
0.042250 0.070037 0.028097 
0.047500 0.067754 0.026194 
0.050000 0.067776 0.026448 
0.048000 0.069049 0.024795 
0.050000 0.069092 0.025303 
0.048000 0.066450 0.027465 
0.050000 0.066462 0.027592 
0.053727 0.062657 0.021622 
0.054967 0.061947 0.020349 
0.053053 0.064633 0.021032 
0.054071 0.063946 0.020321 
0.052715 0.062045 0.023257 
0.053954 0.061335 0.021984 
0.052040 0.064020 0.022667 
0.059750 0.062267 0.020108 
0.059500 0.064460 0.020866 
0.058250 0.062547 0.023280 
0.059000 0.061738 0.022139 
0.058000 0.064682 0.023404 
0.052060 0.066586 0.019973 
0.055750 0.070850 0.020982 
0.055750 0.068276 0.024034 
0.053000 0.070356 0.023524 
0.055250 0.069616 0.023143 
0.058500 0.067328 0.021242 
0.059000 0.067273 0.020607 
0.057750 0.069389 0.020476 
0.057000 0.067503 0.023273 
0.057000 0.068832 0.022255 
0.051510 0.061417 0.024612 
0.056000 0.062121 0.026453 
0.055500 0.064937 0.026323 
0.053000 0.062324 0.028737 
0.054500 0.062234 0.027722 
0.052500 0.065071 0.027847 
0.054250 0.064331 0.027466 
0.057000 0.062020 0.025311 
0.057000 0.064804 0.024800 
0.052500 0.067743 0.026067 
0.055250 0.066982 0.025433 
0.052500 0.069071 0.025049 
0.054000 0.069027 0.024541 
0.052500 0.066417 0.027084 
0.056500 0.066208 0.024672 
0.042850 0.052809 0.030302 
0.044695 0.052801 0.029457 
0.042972 0.054821 0.029992 
0.044945 0.054824 0.029335 
0.043000 0.052793 0.032544 
0.045000 0.052769 0.032291 
0.042750 0.054884 0.032291 
0.045250 0.054896 0.032417 
0.048000 0.052603 0.030517 
0.049750 0.053214 0.029503 
0.048250 0.054779 0.031150 
0.050000 0.055379 0.030009 
0.046750 0.053427 0.031784 
0.047250 0.054837 0.031784 
0.042750 0.057646 0.031656 
0.043000 0.059682 0.030768 
0.045250 0.060410 0.031021 
0.043000 0.056953 0.031783 
0.045250 0.057681 0.032037 
0.048250 0.057612 0.031276 
0.050250 0.057519 0.030261 
0.048000 0.059705 0.031022 
0.050000 0.059648 0.030387 
0.047250 0.057658 0.031783 
0.051750 0.056026 0.029375 
0.052250 0.057438 0.029374 
0.052250 0.060262 0.029372 
0.043250 0.061674 0.029372 
0.045250 0.061742 0.030133 
0.048000 0.062436 0.030006 
0.050000 0.062414 0.029752 
0.048000 0.063792 0.029370 
0.051750 0.061674 0.029372 
0.007500 0.107446 0.038902 
0.006982 0.108815 0.039000 
0.008922 0.106763 0.038785 
0.010837 0.106772 0.038931 
0.008972 0.108803 0.038369 
0.011232 0.108802 0.038133 
0.016606 0.104751 0.039007 
0.021459 0.101367 0.038658 
0.018644 0.104077 0.038905 
0.021250 0.104070 0.038290 
0.017079 0.109453 0.036487 
0.013780 0.106778 0.038810 
0.016231 0.106094 0.038427 
0.013492 0.108800 0.037898 
0.015876 0.108111 0.037416 
0.021414 0.107413 0.036235 
0.018588 0.109443 0.036038 
0.020837 0.108749 0.035358 
0.018356 0.106090 0.037994 
0.020827 0.106075 0.037180 
0.018482 0.108100 0.036800 
0.021000 0.109806 0.038549 
0.041456 0.079560 0.000122 
0.041602 0.089239 0.001005 
0.041674 0.089849 0.016192 
0.041601 0.087925 0.019237 
0.041504 0.089244 0.018177 
0.042293 0.072122 0.001963 
0.042344 0.074157 0.001548 
0.042693 0.072210 0.003435 
0.042823 0.074957 0.003564 
0.042407 0.076903 0.001578 
0.042384 0.078977 0.001940 
0.042867 0.077034 0.004025 
0.042524 0.079738 0.003461 
0.042942 0.072379 0.006462 
0.042857 0.074393 0.005847 
0.042909 0.071815 0.008646 
0.043039 0.074550 0.008775 
0.043055 0.077140 0.006076 
0.043031 0.079206 0.006437 
0.043033 0.077271 0.008705 
0.042941 0.079327 0.008967 
0.042109 0.081694 0.001475 
0.042363 0.083750 0.001358 
0.042567 0.081814 0.003921 
0.042753 0.083860 0.003704 
0.042100 0.087186 0.001338 
0.041988 0.088594 0.002030 
0.042546 0.086585 0.003338 
0.042330 0.089362 0.003847 
0.042958 0.081928 0.006268 
0.042818 0.084647 0.006001 
0.042868 0.082044 0.008798 
0.042851 0.084065 0.008283 
0.046000 0.084826 0.009247 
0.042793 0.086716 0.006362 
0.042566 0.088780 0.006425 
0.042635 0.086817 0.008792 
0.045750 0.087049 0.009762 
0.042407 0.088877 0.008855 
0.045750 0.088457 0.009130 
0.043098 0.071931 0.010697 
0.043092 0.074648 0.010627 
0.043010 0.072067 0.013228 
0.042936 0.074772 0.013058 
0.042932 0.076694 0.010789 
0.042926 0.079411 0.010719 
0.046250 0.079980 0.011043 
0.042843 0.076820 0.013320 
0.042769 0.079526 0.013150 
0.042853 0.072197 0.015660 
0.042828 0.074247 0.016020 
0.042697 0.072326 0.018091 
0.046250 0.072129 0.019328 
0.042671 0.074373 0.018451 
0.046250 0.074892 0.018433 
0.048000 0.072562 0.016022 
0.047500 0.073962 0.015765 
0.050000 0.074004 0.016273 
0.047250 0.072044 0.018311 
0.050000 0.072806 0.018945 
0.046750 0.073368 0.017165 
0.050250 0.073368 0.017165 
0.042618 0.076934 0.015651 
0.042544 0.079635 0.015481 
0.042461 0.077054 0.018082 
0.046500 0.077093 0.019318 
0.042436 0.079100 0.018442 
0.056000 0.072647 0.017039 
0.052500 0.073983 0.016019 
0.053000 0.072848 0.019453 
0.055000 0.072753 0.018310 
0.052750 0.073410 0.017673 
0.054250 0.073410 0.017673 
0.057750 0.071810 0.015516 
0.059000 0.071088 0.015391 
0.057000 0.071334 0.018313 
0.042710 0.082153 0.011228 
0.046250 0.081344 0.010276 
0.042625 0.084166 0.010614 
0.042609 0.081569 0.013312 
0.042467 0.084271 0.013043 
0.042477 0.086917 0.011221 
0.046000 0.086341 0.010014 
0.042249 0.088973 0.011284 
0.042375 0.086319 0.013305 
0.042023 0.089065 0.013615 
0.042451 0.081680 0.015743 
0.042309 0.084377 0.015473 
0.042294 0.081790 0.018173 
0.042152 0.084482 0.017903 
0.042149 0.086416 0.015636 
0.041797 0.089157 0.015945 
0.045250 0.090341 0.014987 
0.041923 0.086512 0.017966 
0.041770 0.088527 0.017252 
0.041117 0.092004 0.001118 
0.040409 0.094081 0.001365 
0.041574 0.092102 0.003563 
0.041001 0.094183 0.004007 
0.040047 0.096149 0.001230 
0.038831 0.099584 0.000700 
0.039610 0.098243 0.001873 
0.040178 0.096924 0.003625 
0.039212 0.099690 0.003920 
0.039729 0.098308 0.003822 
0.041256 0.094263 0.006155 
0.041232 0.094358 0.008782 
0.040480 0.096328 0.006302 
0.039128 0.099742 0.005573 
0.039772 0.098399 0.006548 
0.040532 0.096393 0.008153 
0.039172 0.099830 0.008299 
0.039756 0.098456 0.008300 
0.035724 0.104429 0.000914 
0.036382 0.104509 0.003655 
0.037845 0.101680 0.001426 
0.037050 0.103079 0.002004 
0.038234 0.101753 0.003771 
0.037380 0.103121 0.003374 
0.035207 0.105818 0.001012 
0.033221 0.108584 0.000699 
0.035663 0.105886 0.003456 
0.033812 0.108651 0.003341 
0.034407 0.107970 0.003786 
0.036568 0.104567 0.005703 
0.036679 0.104648 0.008527 
0.038285 0.101810 0.005621 
0.037490 0.103204 0.006199 
0.038261 0.101889 0.008248 
0.037533 0.103284 0.008924 
0.035706 0.105960 0.006182 
0.033922 0.108721 0.006165 
0.034459 0.108018 0.005636 
0.035356 0.106719 0.008758 
0.033897 0.108787 0.008791 
0.041436 0.092395 0.011346 
0.041006 0.094441 0.011112 
0.041469 0.091797 0.013628 
0.040780 0.094523 0.013443 
0.040441 0.096480 0.010681 
0.039013 0.099906 0.010727 
0.039530 0.098532 0.010629 
0.040071 0.096581 0.013688 
0.038969 0.099318 0.013785 
0.039295 0.098636 0.013835 
0.041243 0.091885 0.015958 
0.040745 0.093918 0.015625 
0.040949 0.091967 0.018189 
0.040240 0.094017 0.018435 
0.039968 0.095968 0.015771 
0.038607 0.099385 0.015917 
0.039138 0.096741 0.018531 
0.039607 0.096040 0.017903 
0.038361 0.098790 0.018677 
0.036655 0.104721 0.011154 
0.036428 0.104787 0.013483 
0.038428 0.101278 0.010726 
0.037374 0.103355 0.011353 
0.038126 0.101373 0.013832 
0.037215 0.103424 0.013781 
0.035800 0.106084 0.010757 
0.033872 0.108853 0.011417 
0.034409 0.108151 0.010889 
0.035641 0.106150 0.013185 
0.033721 0.108891 0.012970 
0.034643 0.107529 0.013466 
0.036662 0.104174 0.016061 
0.036300 0.104235 0.018192 
0.037831 0.101440 0.016063 
0.036920 0.103488 0.016012 
0.041000 0.104100 0.014895 
0.037537 0.101507 0.018294 
0.041500 0.101404 0.018066 
0.036952 0.102871 0.018293 
0.040500 0.104271 0.017692 
0.035346 0.106209 0.015416 
0.033553 0.108974 0.016274 
0.034551 0.107596 0.015993 
0.035043 0.106293 0.018522 
0.033393 0.109034 0.018702 
0.039000 0.107245 0.019097 
0.039500 0.105747 0.018204 
0.038000 0.108689 0.019100 
0.041892 0.091451 0.004489 
0.042012 0.091527 0.006439 
0.041929 0.091590 0.008091 
0.041690 0.092948 0.007710 
0.044500 0.096425 0.008516 
0.041886 0.091021 0.011150 
0.041735 0.091080 0.012703 
0.045000 0.092479 0.014484 
0.041701 0.090481 0.014886 
0.045000 0.091066 0.014989 
0.044500 0.093955 0.014869 
0.043500 0.096896 0.015512 
0.043000 0.098353 0.015643 
0.042750 0.099211 0.017680 
0.042500 0.101226 0.015269 
0.041750 0.103367 0.014766 
0.041750 0.100698 0.018319 
0.041684 0.071117 0.021072 
0.041066 0.071899 0.023255 
0.041193 0.074603 0.023381 
0.041310 0.076611 0.023062 
0.041227 0.079340 0.023768 
0.040090 0.071994 0.025373 
0.040218 0.074695 0.025499 
0.038491 0.072123 0.028352 
0.038619 0.074820 0.028477 
0.039384 0.074754 0.026939 
0.040469 0.076713 0.025378 
0.040597 0.079413 0.025504 
0.038870 0.076834 0.028357 
0.039426 0.076796 0.027397 
0.038930 0.079524 0.028383 
0.039485 0.079487 0.027424 
0.041505 0.084628 0.021392 
0.041152 0.082025 0.023597 
0.040942 0.084701 0.023227 
0.041419 0.086626 0.020776 
0.041135 0.089362 0.021185 
0.040713 0.086723 0.023290 
0.040639 0.089434 0.023119 
0.040521 0.082096 0.025333 
0.039947 0.084126 0.025776 
0.038854 0.082203 0.028212 
0.039669 0.081497 0.027204 
0.038625 0.084219 0.028273 
0.039372 0.083508 0.027166 
0.039192 0.087531 0.026811 
0.039804 0.086806 0.025505 
0.039173 0.089545 0.026294 
0.039729 0.089513 0.025335 
0.038549 0.086900 0.028102 
0.038320 0.088933 0.028164 
0.041500 0.089216 0.028981 
0.031086 0.071786 0.038361 
0.031401 0.074490 0.038760 
0.031459 0.077175 0.038785 
0.031646 0.079181 0.038570 
0.036513 0.072246 0.031661 
0.035720 0.072299 0.033161 
0.035971 0.074311 0.033040 
0.037496 0.072207 0.030442 
0.041000 0.072370 0.030636 
0.037748 0.074220 0.030321 
0.041250 0.074497 0.030763 
0.039000 0.072637 0.033813 
0.039750 0.071847 0.032796 
0.039000 0.074057 0.033940 
0.040250 0.074624 0.032288 
0.036158 0.077007 0.033253 
0.036153 0.079689 0.033185 
0.037871 0.076913 0.030441 
0.041000 0.076645 0.031143 
0.037994 0.079606 0.030561 
0.041500 0.079415 0.030507 
0.037078 0.076965 0.031941 
0.040000 0.076781 0.032796 
0.036852 0.079667 0.032435 
0.040500 0.079579 0.032541 
0.033816 0.072381 0.035694 
0.034800 0.072342 0.034474 
0.033654 0.074398 0.035853 
0.034702 0.074365 0.034728 
0.032483 0.072430 0.037288 
0.035750 0.072297 0.038132 
0.032734 0.074441 0.037166 
0.036000 0.074417 0.038260 
0.037750 0.072061 0.035337 
0.038000 0.074173 0.035338 
0.037000 0.074332 0.037244 
0.033713 0.077084 0.035879 
0.035174 0.077045 0.034472 
0.033487 0.079097 0.035945 
0.034820 0.079737 0.034779 
0.032379 0.077133 0.037473 
0.036000 0.077240 0.038389 
0.032438 0.079818 0.037498 
0.036250 0.079318 0.038009 
0.038000 0.077031 0.035847 
