ply
format ascii 1.0
comment Created by CloudCompare v2.12.4 (Kyiv)
comment Created 2023-08-22T23:51:44
obj_info Generated by CloudCompare!
element vertex 1691
property float x
property float y
property float z
end_header
0.018272 0.049549 0.042703 
0.018906 0.049518 0.041858 
0.019320 0.050926 0.042433 
0.017859 0.049555 0.042984 
0.019000 0.049541 0.043067 
0.017923 0.050269 0.043507 
0.018622 0.050951 0.043184 
0.020000 0.049431 0.041926 
0.021250 0.050127 0.041798 
0.019954 0.050896 0.041589 
0.021500 0.050896 0.042430 
0.020250 0.050225 0.042812 
0.013250 0.041937 0.044863 
0.014250 0.041924 0.044736 
0.013250 0.043338 0.044732 
0.014250 0.043325 0.044605 
0.015250 0.041898 0.044482 
0.016750 0.041871 0.044229 
0.015250 0.043312 0.044478 
0.016750 0.043286 0.044225 
0.013250 0.044700 0.044221 
0.014250 0.044687 0.044094 
0.012750 0.046127 0.044344 
0.013750 0.046090 0.043964 
0.015250 0.044687 0.044094 
0.016250 0.044675 0.043968 
0.017500 0.042553 0.043973 
0.017750 0.043260 0.043971 
0.013000 0.046898 0.044976 
0.014000 0.046835 0.044342 
0.012963 0.048151 0.044711 
0.013993 0.048167 0.044446 
0.012500 0.046948 0.045483 
0.013750 0.047642 0.045354 
0.013500 0.048423 0.046112 
0.014000 0.048386 0.045732 
0.015250 0.047517 0.044087 
0.015500 0.048274 0.044592 
0.016398 0.048892 0.043964 
0.013054 0.049598 0.045700 
0.014076 0.049607 0.045424 
0.012994 0.050303 0.046040 
0.014141 0.050320 0.045947 
0.015636 0.049618 0.045049 
0.016463 0.049605 0.044486 
0.016876 0.050306 0.044633 
0.015500 0.049798 0.045728 
0.015637 0.051031 0.045906 
0.016750 0.050492 0.045599 
0.013000 0.048460 0.046493 
0.013250 0.049203 0.046871 
0.014000 0.049908 0.046869 
0.012930 0.051004 0.046375 
0.014250 0.050638 0.047120 
0.012500 0.050031 0.048136 
0.013250 0.050723 0.048007 
0.015500 0.051307 0.046738 
0.017500 0.049663 0.044334 
0.017575 0.050988 0.044311 
0.018750 0.050383 0.044459 
0.018000 0.051211 0.045724 
0.019000 0.051162 0.045217 
0.020000 0.051102 0.044584 
0.003018 0.046080 0.049256 
0.003980 0.046087 0.048892 
0.003511 0.046803 0.049518 
0.004417 0.047520 0.049500 
0.004428 0.048240 0.049944 
0.003500 0.047409 0.050066 
0.004500 0.047421 0.050186 
0.003250 0.048198 0.050904 
0.004250 0.048186 0.050784 
0.005750 0.046631 0.049348 
0.007000 0.047359 0.049585 
0.005939 0.048259 0.049497 
0.006833 0.048256 0.049033 
0.005500 0.047409 0.050066 
0.005750 0.048161 0.050544 
0.006750 0.048137 0.050304 
0.003150 0.049623 0.050701 
0.004180 0.049639 0.050436 
0.003315 0.051016 0.050912 
0.004481 0.051051 0.050846 
0.005951 0.048978 0.049942 
0.007270 0.049687 0.049641 
0.005414 0.049684 0.050470 
0.007250 0.049617 0.051020 
0.005838 0.050396 0.050633 
0.006733 0.051100 0.050598 
0.004500 0.048938 0.051262 
0.003250 0.049715 0.051981 
0.004250 0.049702 0.051861 
0.003000 0.050466 0.052459 
0.004500 0.050466 0.052459 
0.003250 0.051217 0.052937 
0.004250 0.051217 0.052937 
0.005750 0.049678 0.051620 
0.005500 0.050430 0.052099 
0.006750 0.051121 0.051976 
0.005750 0.051181 0.052577 
0.008000 0.047322 0.049225 
0.008250 0.048076 0.049703 
0.009500 0.048755 0.049461 
0.008000 0.048853 0.050422 
0.010000 0.048707 0.048981 
0.008028 0.049665 0.048979 
0.009750 0.049484 0.049699 
0.008386 0.051074 0.049471 
0.008250 0.049593 0.050780 
0.009250 0.049532 0.050179 
0.008000 0.050333 0.051138 
0.009250 0.051024 0.051016 
0.010250 0.049447 0.049339 
0.011500 0.050115 0.048976 
0.010500 0.050188 0.049697 
0.011750 0.050868 0.049454 
0.010250 0.050964 0.050415 
0.008250 0.051073 0.051496 
0.008750 0.051048 0.051256 
-0.016500 0.051488 0.048612 
-0.016250 0.052264 0.049330 
-0.015250 0.052288 0.049570 
-0.016500 0.053016 0.049808 
-0.014540 0.051757 0.050444 
-0.015744 0.053098 0.050422 
-0.015000 0.053040 0.050049 
-0.014000 0.051608 0.049813 
-0.013720 0.051807 0.050758 
-0.012500 0.051716 0.050893 
-0.013500 0.053087 0.050529 
-0.013000 0.053123 0.050889 
-0.016000 0.054495 0.050651 
-0.015000 0.054507 0.050772 
-0.016500 0.055903 0.050774 
-0.015000 0.055938 0.051134 
-0.014000 0.054507 0.050772 
-0.012750 0.053856 0.051251 
-0.013750 0.055228 0.051013 
-0.012250 0.052455 0.051252 
-0.012734 0.053258 0.051284 
-0.015719 0.054520 0.051315 
-0.014831 0.054578 0.051728 
-0.016379 0.055912 0.052091 
-0.015158 0.055243 0.051678 
-0.013937 0.054574 0.051265 
-0.012500 0.054577 0.051492 
-0.013500 0.055949 0.051254 
-0.012500 0.055995 0.051735 
-0.012235 0.054741 0.052871 
-0.013783 0.056071 0.053233 
-0.012907 0.055420 0.053201 
-0.011500 0.051740 0.051134 
-0.011250 0.052467 0.051372 
-0.009822 0.052029 0.052034 
-0.011500 0.053194 0.051610 
-0.010000 0.053230 0.051970 
-0.009000 0.051800 0.051734 
-0.008000 0.051824 0.051974 
-0.009108 0.053439 0.052161 
-0.007942 0.053473 0.052095 
-0.007500 0.053301 0.052690 
-0.011500 0.054624 0.051972 
-0.010500 0.054648 0.052212 
-0.011250 0.055344 0.052214 
-0.010750 0.055356 0.052334 
-0.011618 0.054762 0.052887 
-0.009972 0.054798 0.052639 
-0.011193 0.055464 0.053052 
-0.010027 0.055496 0.052985 
-0.008818 0.054123 0.052127 
-0.007653 0.054156 0.052061 
-0.007487 0.055527 0.052273 
-0.009000 0.054694 0.052693 
-0.007500 0.054729 0.053053 
-0.008930 0.055519 0.052820 
-0.007750 0.055437 0.053174 
-0.016250 0.056635 0.051135 
-0.015954 0.056615 0.052255 
-0.015250 0.056658 0.051376 
-0.016250 0.058053 0.051378 
-0.014750 0.058076 0.051618 
-0.016367 0.056621 0.052537 
-0.016200 0.057999 0.052750 
-0.013750 0.056658 0.051376 
-0.012750 0.056704 0.051856 
-0.013750 0.058099 0.051858 
-0.013839 0.056771 0.053579 
-0.012250 0.058223 0.053179 
-0.016250 0.059493 0.051861 
-0.015250 0.059515 0.052101 
-0.016500 0.060212 0.052102 
-0.015500 0.060245 0.052462 
-0.016515 0.059373 0.053145 
-0.014943 0.059454 0.053674 
-0.016416 0.060741 0.053258 
-0.015250 0.060986 0.052943 
-0.014000 0.058807 0.051980 
-0.013750 0.059582 0.052821 
-0.012500 0.058941 0.053420 
-0.014000 0.060312 0.053182 
-0.011750 0.056761 0.052456 
-0.011250 0.056796 0.052816 
-0.010250 0.056830 0.053176 
-0.011250 0.058257 0.053539 
-0.010000 0.057549 0.053418 
-0.007456 0.056881 0.052287 
-0.009250 0.056842 0.053297 
-0.007734 0.056905 0.052767 
-0.009500 0.057572 0.053658 
-0.007722 0.057611 0.053213 
-0.014030 0.057452 0.053727 
-0.012470 0.056829 0.053811 
-0.013537 0.058162 0.053991 
-0.012785 0.058199 0.054206 
-0.014548 0.058798 0.053824 
-0.014844 0.060820 0.053788 
-0.014055 0.059507 0.054088 
-0.012619 0.059572 0.054419 
-0.013765 0.060191 0.054053 
-0.012500 0.060400 0.054143 
-0.011921 0.056840 0.053728 
-0.010003 0.056910 0.053877 
-0.011484 0.058248 0.054338 
-0.010250 0.058287 0.054371 
-0.009387 0.056930 0.053893 
-0.007750 0.056899 0.053897 
-0.009085 0.058318 0.054304 
-0.007750 0.058358 0.054619 
-0.011250 0.059716 0.054261 
-0.010000 0.059054 0.054621 
-0.011500 0.060433 0.054503 
-0.010344 0.060328 0.054632 
-0.009750 0.059793 0.055102 
-0.010000 0.060511 0.055343 
-0.008728 0.059008 0.054369 
-0.007562 0.059038 0.054303 
-0.009178 0.060358 0.054565 
-0.007877 0.060404 0.054697 
-0.008750 0.059816 0.055342 
-0.007750 0.059816 0.055342 
-0.009000 0.060522 0.055463 
-0.008000 0.060533 0.055583 
-0.006500 0.051860 0.052334 
-0.006573 0.053535 0.052327 
-0.006263 0.052204 0.052812 
-0.005500 0.051920 0.052935 
-0.006500 0.053337 0.053051 
-0.005222 0.052939 0.052992 
-0.002710 0.051596 0.052268 
-0.004000 0.051967 0.053415 
-0.003248 0.052303 0.052795 
-0.003988 0.052982 0.053025 
-0.002959 0.052997 0.052760 
-0.006284 0.054217 0.052292 
-0.005310 0.054929 0.052374 
-0.006321 0.055560 0.052207 
-0.005705 0.055581 0.052223 
-0.006750 0.054045 0.053172 
-0.005531 0.054256 0.052508 
-0.006750 0.055472 0.053535 
-0.004094 0.054326 0.052839 
-0.002861 0.054369 0.052872 
-0.004342 0.055701 0.053333 
-0.003041 0.055751 0.053465 
0.002642 0.051703 0.051241 
-0.001391 0.052306 0.051967 
-0.000362 0.052321 0.051702 
-0.001583 0.052997 0.052114 
-0.000621 0.053003 0.051750 
-0.002188 0.053694 0.052542 
0.000804 0.052356 0.051636 
0.002161 0.051700 0.051423 
0.000544 0.053037 0.051683 
0.002259 0.053083 0.051534 
0.001000 0.051932 0.053055 
0.002000 0.051920 0.052935 
0.001000 0.053396 0.053651 
0.002000 0.053372 0.053411 
-0.001418 0.054377 0.052325 
-0.000185 0.054420 0.052358 
-0.001831 0.054384 0.052607 
-0.001270 0.055100 0.052970 
-0.000586 0.055130 0.053085 
0.000845 0.054434 0.052093 
0.002011 0.054468 0.052027 
0.002571 0.055183 0.052390 
0.002250 0.054080 0.053532 
0.001072 0.055869 0.053283 
0.002102 0.055883 0.053018 
0.002114 0.056586 0.053463 
-0.002500 0.052015 0.053896 
-0.004000 0.053431 0.054011 
-0.003000 0.053455 0.054252 
-0.005250 0.054104 0.053772 
-0.006500 0.056192 0.053776 
-0.005250 0.055507 0.053895 
-0.004000 0.054835 0.054134 
-0.002750 0.054174 0.054493 
-0.004250 0.055519 0.054015 
-0.002750 0.055554 0.054375 
-0.001500 0.052039 0.054136 
-0.000500 0.052039 0.054136 
-0.001750 0.052777 0.054494 
-0.000250 0.052765 0.054374 
0.000500 0.053443 0.054132 
-0.001750 0.054198 0.054733 
-0.000250 0.054210 0.054853 
-0.001750 0.055588 0.054735 
-0.000250 0.055600 0.054855 
-0.001000 0.054917 0.054974 
0.000750 0.054139 0.054133 
0.001500 0.054800 0.053774 
0.000750 0.055565 0.054495 
0.001750 0.055496 0.053775 
-0.006750 0.056910 0.054017 
-0.005551 0.057069 0.054191 
-0.006754 0.058379 0.054172 
-0.005250 0.058324 0.054259 
-0.004182 0.057127 0.054422 
-0.002750 0.056910 0.054017 
-0.004250 0.058291 0.053899 
-0.002750 0.058279 0.053779 
-0.004362 0.058508 0.055015 
-0.003129 0.058548 0.055048 
-0.006878 0.059066 0.054419 
-0.005000 0.059042 0.054501 
-0.006250 0.059827 0.055462 
-0.005250 0.059805 0.055222 
-0.006500 0.060544 0.055703 
-0.005500 0.060533 0.055583 
-0.004000 0.059009 0.054140 
-0.003000 0.058998 0.054020 
-0.004000 0.060466 0.054863 
-0.003937 0.059205 0.055179 
-0.002704 0.059244 0.055212 
-0.003907 0.060552 0.055193 
-0.002674 0.060590 0.055226 
-0.001750 0.056945 0.054377 
-0.000427 0.056555 0.054175 
-0.001750 0.058302 0.054019 
-0.000250 0.058347 0.054499 
-0.001704 0.057911 0.054934 
-0.000662 0.058627 0.055114 
0.000750 0.056968 0.054617 
0.001750 0.056922 0.054137 
0.001033 0.057960 0.054509 
0.001987 0.057959 0.054133 
-0.001500 0.059031 0.054380 
-0.000500 0.059076 0.054861 
-0.001471 0.059283 0.055245 
-0.000305 0.059313 0.055179 
-0.001441 0.060628 0.055258 
-0.000275 0.060657 0.055192 
0.000713 0.059316 0.054897 
0.002209 0.059319 0.054428 
0.001284 0.060665 0.054817 
0.002239 0.060663 0.054441 
0.000750 0.059838 0.055582 
0.002000 0.059098 0.055101 
0.000807 0.060666 0.055004 
0.002000 0.060577 0.056063 
-0.016750 0.062336 0.052466 
-0.016000 0.061683 0.052944 
-0.015000 0.061715 0.053305 
-0.016000 0.063097 0.053187 
-0.014795 0.062828 0.053370 
-0.014370 0.063528 0.053534 
-0.016743 0.064063 0.052260 
-0.016712 0.065424 0.052274 
-0.016500 0.064479 0.053069 
-0.014832 0.064178 0.053285 
-0.016250 0.065197 0.053310 
-0.015350 0.065527 0.053382 
-0.014013 0.064219 0.053599 
-0.013982 0.065576 0.053614 
-0.016750 0.066620 0.053672 
-0.015474 0.066217 0.053630 
-0.013750 0.066620 0.053672 
-0.014555 0.061504 0.053753 
-0.013500 0.061791 0.054145 
-0.012366 0.061601 0.054299 
-0.014000 0.063172 0.054027 
-0.012471 0.062939 0.054114 
-0.012000 0.063258 0.054987 
-0.015000 0.065934 0.053791 
-0.013750 0.063868 0.054028 
-0.012576 0.064278 0.053930 
-0.013250 0.065259 0.054030 
-0.012750 0.065280 0.054270 
-0.011682 0.061627 0.054414 
-0.010313 0.061681 0.054646 
-0.011103 0.062991 0.054345 
-0.010419 0.063017 0.054461 
-0.011000 0.061889 0.055225 
-0.010000 0.061933 0.055705 
-0.011500 0.063279 0.055227 
-0.010250 0.062617 0.055586 
-0.009080 0.061718 0.054678 
-0.007712 0.061772 0.054910 
-0.009050 0.063070 0.054692 
-0.009000 0.061955 0.055945 
-0.007500 0.061965 0.056065 
-0.008750 0.062649 0.055946 
-0.007682 0.063122 0.054923 
-0.011140 0.064337 0.054260 
-0.010388 0.064371 0.054475 
-0.011658 0.065682 0.054357 
-0.010031 0.065060 0.054540 
-0.011250 0.063974 0.055228 
-0.010250 0.063995 0.055468 
-0.011250 0.065343 0.054990 
-0.010250 0.065375 0.055350 
-0.009020 0.064422 0.054706 
-0.008076 0.063776 0.054773 
-0.008663 0.065110 0.054771 
-0.007978 0.065135 0.054886 
-0.009250 0.064017 0.055708 
-0.007750 0.064048 0.056068 
-0.008750 0.065406 0.055710 
-0.007750 0.065416 0.055830 
-0.007750 0.062671 0.056186 
-0.007250 0.064059 0.056188 
-0.016250 0.066630 0.053792 
-0.015250 0.066651 0.054032 
-0.016250 0.068073 0.054394 
-0.014969 0.067628 0.054339 
-0.013545 0.066979 0.054223 
-0.012750 0.066651 0.054032 
-0.013669 0.067668 0.054470 
-0.012750 0.068042 0.054035 
-0.012443 0.067752 0.055380 
-0.016374 0.068931 0.054023 
-0.014735 0.069007 0.054650 
-0.016500 0.070189 0.054758 
-0.015000 0.070199 0.054878 
-0.015118 0.070370 0.054946 
-0.014000 0.068758 0.054276 
-0.012500 0.068758 0.054276 
-0.014000 0.070159 0.054398 
-0.013000 0.070169 0.054518 
-0.013028 0.069090 0.055377 
-0.013750 0.070414 0.055177 
-0.012863 0.070459 0.055590 
-0.011233 0.066379 0.054521 
-0.011750 0.068083 0.054515 
-0.011086 0.067097 0.055165 
-0.010250 0.066744 0.055112 
-0.011623 0.067791 0.055693 
-0.010250 0.068134 0.055114 
-0.008842 0.066491 0.055364 
-0.007750 0.066805 0.055832 
-0.008750 0.068164 0.055474 
-0.007750 0.068194 0.055834 
-0.011500 0.068809 0.054876 
-0.011250 0.069534 0.055236 
-0.010000 0.068839 0.055235 
-0.011500 0.070238 0.055357 
-0.010500 0.070278 0.055837 
-0.009000 0.068869 0.055595 
-0.008000 0.068889 0.055835 
-0.009984 0.067869 0.056321 
-0.008683 0.067909 0.056453 
-0.007931 0.067940 0.056668 
-0.011051 0.069203 0.056501 
-0.010299 0.069233 0.056716 
-0.011637 0.070539 0.056499 
-0.010133 0.070598 0.056928 
-0.008863 0.069287 0.057046 
-0.007563 0.069326 0.057177 
-0.009000 0.070327 0.056437 
-0.007500 0.070357 0.056797 
-0.008630 0.070658 0.057357 
-0.008014 0.070673 0.057373 
-0.006343 0.061825 0.055141 
-0.005042 0.061870 0.055273 
-0.006313 0.063174 0.055155 
-0.005080 0.063210 0.055187 
-0.002885 0.063250 0.054855 
-0.004000 0.061933 0.055705 
-0.003000 0.061955 0.055945 
-0.003915 0.063238 0.055121 
-0.003107 0.062580 0.054989 
-0.006283 0.064523 0.055168 
-0.005339 0.063880 0.055235 
-0.006610 0.065185 0.055117 
-0.005377 0.065220 0.055150 
-0.002664 0.063920 0.054721 
-0.002566 0.065275 0.054834 
-0.004242 0.063899 0.055069 
-0.003404 0.064587 0.054952 
-0.004144 0.065255 0.055182 
-0.003115 0.065265 0.054917 
-0.006750 0.062671 0.056186 
-0.005500 0.063365 0.056187 
-0.004000 0.063365 0.056187 
-0.003000 0.063386 0.056427 
-0.006750 0.064059 0.056188 
-0.005250 0.064059 0.056188 
-0.005250 0.065448 0.056190 
-0.004250 0.064070 0.056308 
-0.002750 0.064091 0.056548 
-0.004250 0.065469 0.056430 
-0.002750 0.065490 0.056670 
-0.001788 0.063270 0.054689 
-0.000623 0.063297 0.054623 
-0.001768 0.061287 0.055207 
-0.000381 0.061985 0.055007 
0.000645 0.061994 0.054736 
0.002204 0.062002 0.054360 
0.000866 0.062663 0.054602 
0.001884 0.062666 0.054320 
0.000487 0.061331 0.054964 
-0.001566 0.063939 0.054555 
-0.000401 0.063967 0.054489 
-0.001536 0.065286 0.054569 
-0.000439 0.065304 0.054403 
0.000764 0.063994 0.054422 
0.001786 0.064000 0.054146 
0.000726 0.065331 0.054336 
0.001880 0.065350 0.054253 
-0.001500 0.061998 0.056425 
-0.000500 0.062009 0.056545 
-0.001750 0.062703 0.056546 
-0.000250 0.062714 0.056666 
0.001000 0.062009 0.056545 
0.002000 0.062020 0.056665 
0.000750 0.062714 0.056666 
0.002250 0.062714 0.056666 
-0.001750 0.064102 0.056668 
-0.000250 0.064102 0.056668 
-0.001750 0.065490 0.056670 
-0.000250 0.065479 0.056550 
0.000750 0.064102 0.056668 
0.002250 0.064102 0.056668 
0.000750 0.065469 0.056430 
0.002250 0.065469 0.056430 
-0.006790 0.066564 0.055710 
-0.005076 0.066599 0.055560 
-0.006500 0.067510 0.055953 
-0.005132 0.067292 0.055906 
-0.003979 0.066617 0.055394 
-0.002949 0.066628 0.055129 
-0.004159 0.067994 0.055987 
-0.002716 0.067997 0.055440 
-0.006500 0.068909 0.056075 
-0.002772 0.068688 0.055786 
-0.002539 0.070056 0.056097 
-0.005250 0.066836 0.056192 
-0.006766 0.067965 0.056601 
-0.005669 0.067983 0.056435 
-0.003750 0.066857 0.056432 
-0.002750 0.066867 0.056552 
-0.004000 0.067541 0.056313 
-0.003000 0.067561 0.056553 
-0.006206 0.068673 0.056963 
-0.005301 0.069367 0.056944 
-0.006500 0.070387 0.057156 
-0.005424 0.070051 0.057191 
-0.006713 0.070711 0.057505 
-0.004000 0.068949 0.056555 
-0.003000 0.068959 0.056675 
-0.003914 0.070061 0.056743 
-0.003076 0.070746 0.056625 
-0.004000 0.070406 0.057396 
-0.003000 0.070406 0.057396 
-0.001371 0.066647 0.054781 
-0.000341 0.066658 0.054515 
-0.001273 0.068001 0.054893 
-0.000244 0.068011 0.054628 
-0.001686 0.068007 0.055175 
0.000824 0.066684 0.054448 
0.002038 0.066704 0.054453 
0.000985 0.068041 0.054655 
0.001846 0.067379 0.054601 
0.002250 0.066826 0.056072 
0.001250 0.068215 0.056074 
0.002250 0.068194 0.055834 
-0.000435 0.068686 0.054775 
-0.000338 0.070039 0.054888 
-0.001589 0.069360 0.055287 
-0.000627 0.069362 0.054923 
-0.001780 0.070036 0.055435 
-0.000530 0.070715 0.055035 
0.000793 0.068716 0.054802 
0.001335 0.069410 0.055137 
0.002000 0.068899 0.055955 
0.001079 0.070080 0.055190 
0.002289 0.070097 0.055189 
-0.001750 0.066877 0.056672 
-0.000250 0.066867 0.056552 
-0.001500 0.067561 0.056553 
-0.000500 0.067561 0.056553 
0.000750 0.066847 0.056312 
0.002000 0.066142 0.056191 
0.000500 0.067541 0.056313 
-0.001500 0.068959 0.056675 
-0.000500 0.068939 0.056435 
-0.001500 0.070377 0.057037 
-0.000500 0.070357 0.056797 
0.000500 0.068929 0.056315 
0.001000 0.070327 0.056437 
0.002000 0.070308 0.056197 
0.009846 0.051738 0.048492 
0.010958 0.051707 0.047460 
0.011848 0.051700 0.046990 
0.012070 0.053090 0.047284 
0.010481 0.052414 0.048076 
0.010353 0.053109 0.048316 
0.011465 0.053785 0.047712 
0.012227 0.054459 0.047485 
0.010447 0.054473 0.048423 
0.011750 0.054460 0.047672 
0.010476 0.055817 0.048436 
0.011908 0.055815 0.047873 
0.009807 0.056493 0.048771 
0.010762 0.056492 0.048396 
0.011653 0.057176 0.048356 
0.011048 0.057858 0.048784 
0.012002 0.057856 0.048409 
0.020717 0.051584 0.041360 
0.021543 0.051571 0.040797 
0.022021 0.052983 0.041467 
0.019669 0.051621 0.042487 
0.018971 0.051645 0.043237 
0.019321 0.053045 0.043719 
0.020368 0.052302 0.042164 
0.021194 0.052290 0.041601 
0.020304 0.053003 0.042499 
0.021608 0.052989 0.041748 
0.021750 0.051665 0.043061 
0.019955 0.053015 0.042874 
0.019479 0.054413 0.043920 
0.019700 0.055082 0.043785 
0.021481 0.054376 0.042418 
0.022116 0.055729 0.042431 
0.020241 0.054395 0.043263 
0.020335 0.055744 0.043369 
0.021225 0.055737 0.042900 
0.021988 0.056410 0.042672 
0.020492 0.057098 0.043570 
0.021383 0.057091 0.043101 
0.020301 0.057773 0.043717 
0.021476 0.058440 0.043208 
0.020394 0.059122 0.043824 
0.021698 0.059108 0.043073 
0.020360 0.060460 0.043743 
0.021250 0.060452 0.043274 
0.017226 0.051706 0.045115 
0.015573 0.051731 0.046241 
0.016464 0.051725 0.045772 
0.016686 0.053112 0.046066 
0.016843 0.054480 0.046266 
0.017193 0.055160 0.046320 
0.012867 0.051705 0.046709 
0.014013 0.051721 0.046616 
0.013152 0.053100 0.047097 
0.014299 0.053116 0.047004 
0.013500 0.051464 0.048372 
0.014250 0.052145 0.048129 
0.014500 0.052862 0.048247 
0.015750 0.052049 0.047116 
0.016750 0.052013 0.046735 
0.015318 0.053120 0.046722 
0.016500 0.052766 0.047240 
0.015250 0.053550 0.048128 
0.016750 0.053502 0.047622 
0.013310 0.054469 0.047297 
0.014457 0.054484 0.047204 
0.013404 0.055818 0.047404 
0.014486 0.055827 0.047217 
0.012927 0.055819 0.047592 
0.015475 0.054488 0.046923 
0.016430 0.054487 0.046548 
0.015569 0.055837 0.047030 
0.016524 0.055835 0.046654 
0.015500 0.054273 0.048370 
0.016500 0.054238 0.048003 
0.016000 0.055707 0.048733 
0.017000 0.055684 0.048493 
0.017924 0.051682 0.044364 
0.018623 0.052363 0.044042 
0.018210 0.053075 0.044752 
0.018559 0.053063 0.044376 
0.018250 0.051965 0.046229 
0.019250 0.051929 0.045849 
0.017512 0.053099 0.045503 
0.019500 0.052683 0.046353 
0.020750 0.051809 0.044582 
0.021500 0.052504 0.044453 
0.021750 0.053241 0.044834 
0.020250 0.051869 0.045215 
0.020750 0.053360 0.046101 
0.021250 0.053300 0.045468 
0.018432 0.054449 0.045046 
0.019130 0.054425 0.044295 
0.019288 0.055780 0.044496 
0.017669 0.054467 0.045703 
0.017827 0.055822 0.045904 
0.018589 0.055803 0.045247 
0.021500 0.054036 0.045849 
0.022000 0.055461 0.046105 
0.017750 0.053479 0.047368 
0.019250 0.053455 0.047115 
0.020250 0.053395 0.046481 
0.019500 0.054178 0.047369 
0.018000 0.054214 0.047750 
0.019250 0.054926 0.047878 
0.018000 0.055684 0.048493 
0.019000 0.055661 0.048253 
0.020500 0.054131 0.046863 
0.021250 0.054796 0.046484 
0.020500 0.055590 0.047499 
0.021500 0.055508 0.046612 
0.019750 0.054902 0.047624 
0.020000 0.055626 0.047879 
0.017222 0.056503 0.046332 
0.016646 0.057836 0.046345 
0.017025 0.059167 0.045982 
0.016990 0.060505 0.045902 
0.013212 0.056493 0.047552 
0.014231 0.056497 0.047270 
0.014260 0.057840 0.047283 
0.013084 0.057173 0.047793 
0.012957 0.057854 0.048034 
0.013719 0.058527 0.047806 
0.015534 0.057175 0.046949 
0.016489 0.057173 0.046573 
0.015215 0.057838 0.046908 
0.016233 0.057842 0.046626 
0.016750 0.056406 0.048734 
0.014418 0.059195 0.047484 
0.013178 0.059214 0.048328 
0.014005 0.059201 0.047765 
0.013336 0.060568 0.048529 
0.014226 0.060561 0.048060 
0.015180 0.059177 0.046827 
0.015402 0.060536 0.047121 
0.016164 0.060518 0.046465 
0.019381 0.057128 0.044603 
0.019253 0.057809 0.044844 
0.017857 0.057165 0.045916 
0.018619 0.057147 0.045259 
0.018078 0.057833 0.045782 
0.018648 0.058490 0.045272 
0.019730 0.057116 0.044227 
0.019951 0.057785 0.044093 
0.018486 0.059817 0.045003 
0.019219 0.059146 0.044762 
0.018294 0.060491 0.045151 
0.019120 0.060479 0.044588 
0.017915 0.059160 0.045513 
0.017817 0.060492 0.045338 
0.019981 0.059128 0.044106 
0.019946 0.060466 0.044025 
0.017750 0.056406 0.048734 
0.019000 0.057094 0.048616 
0.019250 0.057805 0.048737 
0.020750 0.056290 0.047500 
0.021500 0.056955 0.047121 
0.021750 0.057655 0.047123 
0.020500 0.057037 0.048009 
0.021000 0.057002 0.047628 
0.020250 0.057771 0.048377 
0.021500 0.058402 0.047631 
0.019500 0.059903 0.048741 
0.019250 0.060603 0.048742 
0.021750 0.059090 0.047506 
0.020250 0.059182 0.048500 
0.021250 0.059137 0.048013 
0.020250 0.060570 0.048382 
0.021250 0.060536 0.048016 
0.022071 0.063121 0.042643 
0.020325 0.061798 0.043662 
0.021693 0.061789 0.043005 
0.020355 0.063141 0.043675 
0.021658 0.063127 0.042924 
0.022101 0.064464 0.042656 
0.021845 0.065134 0.042709 
0.020576 0.063809 0.043541 
0.021274 0.064477 0.043219 
0.020797 0.065168 0.043835 
0.021496 0.065145 0.043084 
0.021781 0.066509 0.043472 
0.022066 0.067872 0.043860 
0.017212 0.061864 0.046196 
0.013208 0.061248 0.048770 
0.014384 0.061914 0.048260 
0.014320 0.062600 0.048595 
0.015687 0.061901 0.047510 
0.016385 0.061877 0.046759 
0.015973 0.062574 0.047469 
0.016671 0.063241 0.047147 
0.015274 0.061907 0.047791 
0.015431 0.063260 0.047992 
0.017020 0.063920 0.047200 
0.017242 0.065278 0.047494 
0.015368 0.063946 0.048326 
0.016479 0.064606 0.047723 
0.015525 0.065299 0.048526 
0.016351 0.065286 0.047963 
0.018451 0.061155 0.044923 
0.019086 0.061817 0.044507 
0.018481 0.062498 0.044935 
0.019115 0.063160 0.044520 
0.017910 0.061841 0.045445 
0.018196 0.063205 0.045833 
0.019912 0.061804 0.043944 
0.019941 0.063147 0.043957 
0.019464 0.063839 0.044573 
0.018132 0.063891 0.046168 
0.018830 0.064558 0.045846 
0.019179 0.065236 0.045899 
0.020099 0.064501 0.044157 
0.020099 0.065191 0.044585 
0.019814 0.065898 0.045483 
0.017497 0.063229 0.046584 
0.018500 0.061302 0.048744 
0.019250 0.061969 0.048385 
0.019000 0.062669 0.048387 
0.021750 0.061891 0.047511 
0.021750 0.063257 0.047133 
0.020250 0.061947 0.048145 
0.021250 0.061913 0.047765 
0.020500 0.062624 0.047893 
0.021000 0.062602 0.047639 
0.017783 0.064592 0.046972 
0.018068 0.065266 0.046931 
0.018830 0.065938 0.046703 
0.019500 0.064057 0.048269 
0.020750 0.064691 0.047516 
0.021500 0.063957 0.047134 
0.021500 0.065357 0.047137 
0.020000 0.064035 0.048023 
0.020500 0.065435 0.048025 
0.015682 0.066652 0.048727 
0.016636 0.066649 0.048351 
0.016031 0.067330 0.048780 
0.016922 0.068012 0.048739 
0.019465 0.066599 0.046287 
0.020797 0.066548 0.044692 
0.021083 0.066532 0.044223 
0.021432 0.067900 0.044704 
0.020163 0.066576 0.045536 
0.020448 0.067939 0.045924 
0.021147 0.067916 0.045173 
0.021938 0.069241 0.044529 
0.021938 0.069931 0.044957 
0.020669 0.069297 0.046217 
0.021304 0.069269 0.045373 
0.021589 0.070631 0.045761 
0.018417 0.066634 0.047412 
0.019115 0.066611 0.046662 
0.019401 0.067974 0.047049 
0.017527 0.066641 0.047882 
0.017812 0.068004 0.048269 
0.018574 0.067986 0.047613 
0.022000 0.066735 0.046886 
0.019750 0.067962 0.046674 
0.020500 0.066887 0.048635 
0.021500 0.066802 0.047647 
0.020750 0.067586 0.048636 
0.021250 0.067556 0.048276 
0.019272 0.068653 0.047290 
0.019430 0.070005 0.047490 
0.018033 0.069361 0.048563 
0.018795 0.069343 0.047906 
0.018254 0.070029 0.048428 
0.018888 0.070690 0.048012 
0.019907 0.069314 0.046874 
0.020192 0.069987 0.046833 
0.021750 0.068975 0.048519 
0.021500 0.069695 0.048760 
0.003123 0.051706 0.051059 
0.004289 0.051740 0.050992 
0.005071 0.053154 0.051220 
0.005522 0.051784 0.051026 
0.007082 0.051794 0.050651 
0.005680 0.053168 0.051225 
0.007176 0.053172 0.050757 
0.005645 0.054521 0.051144 
0.007141 0.054524 0.050675 
0.005675 0.055865 0.051157 
0.007107 0.055863 0.050594 
0.003356 0.053107 0.051369 
0.004522 0.053141 0.051302 
0.003000 0.051943 0.053175 
0.004500 0.051955 0.053295 
0.003500 0.053384 0.053531 
0.004500 0.053384 0.053531 
0.007000 0.051836 0.052094 
0.007500 0.053254 0.052210 
0.005500 0.051932 0.053055 
0.006750 0.052586 0.052572 
0.005500 0.053360 0.053291 
0.006500 0.053313 0.052811 
0.003041 0.054483 0.051762 
0.004070 0.054497 0.051497 
0.003410 0.055873 0.052272 
0.004372 0.055879 0.051908 
0.003250 0.054080 0.053532 
0.004500 0.054765 0.053413 
0.003250 0.055472 0.053535 
0.004750 0.055449 0.053294 
0.007250 0.053974 0.052451 
0.005262 0.055871 0.051439 
0.005750 0.054045 0.053172 
0.007000 0.054694 0.052693 
0.005750 0.055437 0.053174 
0.006750 0.055414 0.052934 
0.008322 0.051775 0.049806 
0.009084 0.051757 0.049149 
0.008479 0.053158 0.050006 
0.009306 0.053146 0.049443 
0.007845 0.052482 0.050422 
0.008066 0.053165 0.050287 
0.012000 0.051608 0.049813 
0.010500 0.051716 0.050893 
0.011750 0.052384 0.050531 
0.012000 0.053099 0.050649 
0.008381 0.054505 0.049831 
0.009207 0.054492 0.049268 
0.008346 0.055844 0.049750 
0.009109 0.055825 0.049093 
0.008032 0.054517 0.050206 
0.007584 0.055862 0.050407 
0.012250 0.053821 0.050890 
0.008000 0.051800 0.051734 
0.009000 0.051788 0.051614 
0.008000 0.053254 0.052210 
0.009500 0.053242 0.052090 
0.010250 0.052491 0.051612 
0.010500 0.053218 0.051850 
0.008250 0.053962 0.052331 
0.009250 0.053962 0.052331 
0.008000 0.054683 0.052573 
0.009500 0.054683 0.052573 
0.008250 0.055391 0.052694 
0.009250 0.055391 0.052694 
0.011000 0.054636 0.052092 
0.011500 0.054612 0.051852 
0.010750 0.055368 0.052454 
0.011750 0.055310 0.051854 
0.010000 0.054683 0.052573 
0.010500 0.056088 0.052695 
0.005961 0.056540 0.051117 
0.006915 0.056538 0.050742 
0.007073 0.057893 0.050943 
0.004785 0.056564 0.052055 
0.003354 0.057259 0.053047 
0.004750 0.056842 0.053297 
0.003355 0.057950 0.053476 
0.004373 0.057954 0.053195 
0.005548 0.057238 0.051828 
0.006026 0.057929 0.052069 
0.006788 0.058602 0.051841 
0.005750 0.056842 0.053297 
0.006750 0.056819 0.053057 
0.005263 0.057947 0.052726 
0.007250 0.058234 0.053299 
0.004659 0.059320 0.053584 
0.004753 0.060669 0.053690 
0.007010 0.059271 0.051707 
0.007231 0.060630 0.052001 
0.005549 0.059312 0.053114 
0.006440 0.059305 0.052645 
0.005707 0.060667 0.053315 
0.006533 0.060654 0.052752 
0.008376 0.057188 0.049763 
0.009202 0.057175 0.049200 
0.008248 0.057868 0.050004 
0.009139 0.057861 0.049535 
0.007741 0.056525 0.050179 
0.007835 0.057875 0.050286 
0.010157 0.057173 0.048825 
0.010635 0.057864 0.049066 
0.011525 0.058548 0.049026 
0.008121 0.059241 0.050674 
0.009140 0.059244 0.050393 
0.008471 0.060611 0.051157 
0.009553 0.060620 0.050969 
0.010571 0.059241 0.049830 
0.011462 0.059234 0.049361 
0.010985 0.059926 0.049977 
0.012096 0.060587 0.049374 
0.010508 0.060618 0.050594 
0.008250 0.056807 0.052936 
0.009250 0.056796 0.052816 
0.008250 0.058212 0.053059 
0.009250 0.058189 0.052819 
0.011000 0.057458 0.052457 
0.011750 0.056727 0.052096 
0.010750 0.058155 0.052458 
0.011750 0.058110 0.051978 
0.010250 0.056784 0.052696 
0.010250 0.058166 0.052579 
0.007994 0.060612 0.051344 
0.008000 0.058930 0.053300 
0.009250 0.059582 0.052821 
0.009500 0.060290 0.052942 
0.010750 0.059538 0.052341 
0.011750 0.059482 0.051741 
0.010500 0.060234 0.052342 
0.011750 0.060866 0.051623 
0.010250 0.060953 0.052583 
0.002750 0.056887 0.053777 
0.003250 0.058347 0.054499 
0.004250 0.058324 0.054259 
0.005750 0.058291 0.053899 
0.003163 0.059317 0.054053 
0.004500 0.059065 0.054740 
0.003257 0.060666 0.054160 
0.004275 0.060670 0.053878 
0.003000 0.059110 0.055221 
0.004250 0.059816 0.055342 
0.003500 0.060566 0.055943 
0.004500 0.060544 0.055703 
0.006000 0.059031 0.054380 
0.006750 0.059716 0.054261 
0.007000 0.060433 0.054503 
0.005250 0.059805 0.055222 
0.005500 0.060522 0.055463 
0.007750 0.059671 0.053781 
0.008000 0.060389 0.054022 
0.008750 0.061096 0.054144 
0.012750 0.052288 0.049570 
0.013000 0.053016 0.049808 
0.014250 0.053632 0.048969 
0.012750 0.053774 0.050410 
0.013500 0.054425 0.049931 
0.014000 0.054390 0.049571 
0.014500 0.055799 0.049693 
0.013000 0.054495 0.050651 
0.013250 0.055193 0.050653 
0.014000 0.055834 0.050054 
0.015250 0.055019 0.048852 
0.015500 0.055730 0.048973 
0.012500 0.055972 0.051495 
0.014500 0.057219 0.049936 
0.014750 0.057907 0.049817 
0.013250 0.056624 0.051015 
0.014000 0.057265 0.050416 
0.013250 0.058008 0.050898 
0.013750 0.057963 0.050418 
0.015500 0.057163 0.049336 
0.016500 0.057128 0.048976 
0.015250 0.057884 0.049577 
0.016750 0.057839 0.049097 
0.012637 0.059901 0.048851 
0.014750 0.059315 0.049940 
0.012574 0.060586 0.049186 
0.013250 0.059382 0.050660 
0.014250 0.059337 0.050180 
0.013250 0.060789 0.050783 
0.014250 0.060745 0.050303 
0.015750 0.059282 0.049580 
0.016750 0.059248 0.049220 
0.015750 0.060701 0.049823 
0.016750 0.060668 0.049463 
0.015250 0.060723 0.050063 
0.012750 0.056670 0.051496 
0.012750 0.058042 0.051258 
0.012500 0.058740 0.051259 
0.018000 0.057117 0.048856 
0.017750 0.057828 0.048977 
0.019000 0.058516 0.048859 
0.017750 0.059226 0.048980 
0.019250 0.059215 0.048860 
0.017750 0.060635 0.049103 
0.018750 0.060614 0.048863 
0.004718 0.062007 0.053610 
0.004398 0.062671 0.053569 
0.007104 0.061311 0.052242 
0.007261 0.062665 0.052443 
0.005672 0.062005 0.053234 
0.006563 0.061997 0.052765 
0.005894 0.062673 0.053100 
0.006848 0.062671 0.052724 
0.004492 0.064020 0.053676 
0.006051 0.064027 0.053300 
0.007006 0.064025 0.052925 
0.005732 0.065382 0.053689 
0.007163 0.065379 0.053125 
0.012033 0.061273 0.049709 
0.012190 0.062626 0.049909 
0.010793 0.061982 0.050982 
0.011556 0.061964 0.050325 
0.010601 0.062657 0.051129 
0.011713 0.063318 0.050525 
0.010695 0.064005 0.051235 
0.011998 0.063991 0.050485 
0.011679 0.065346 0.050873 
0.008343 0.061983 0.051826 
0.009362 0.061986 0.051545 
0.008216 0.062663 0.052067 
0.009298 0.062671 0.051880 
0.007611 0.063344 0.052496 
0.011000 0.061617 0.052224 
0.012000 0.061574 0.051744 
0.010474 0.063337 0.051370 
0.012000 0.063022 0.052347 
0.010500 0.061683 0.052944 
0.011000 0.063054 0.052707 
0.008501 0.064027 0.052456 
0.009391 0.064019 0.051986 
0.008531 0.065370 0.052468 
0.009421 0.065362 0.051999 
0.007960 0.064023 0.052549 
0.008117 0.065376 0.052750 
0.010282 0.064012 0.051517 
0.012250 0.063730 0.052468 
0.010311 0.065355 0.051530 
0.011000 0.064500 0.053309 
0.011500 0.064479 0.053069 
0.010750 0.065228 0.053670 
0.011750 0.065186 0.053190 
0.006017 0.066056 0.053648 
0.007257 0.066727 0.053232 
0.007350 0.068075 0.053338 
0.007222 0.068755 0.053579 
0.007251 0.070098 0.053592 
0.011836 0.066699 0.051073 
0.011929 0.068047 0.051179 
0.012214 0.068720 0.051139 
0.012308 0.070067 0.051245 
0.009514 0.066710 0.052106 
0.009608 0.068058 0.052212 
0.008147 0.066719 0.052763 
0.008176 0.068062 0.052775 
0.010468 0.066708 0.051730 
0.011423 0.066705 0.051354 
0.010690 0.068066 0.052024 
0.011580 0.068058 0.051555 
0.011750 0.066620 0.053672 
0.009480 0.068738 0.052453 
0.007984 0.068737 0.052923 
0.009352 0.069418 0.052694 
0.008142 0.070090 0.053123 
0.009224 0.070097 0.052935 
0.010562 0.068745 0.052265 
0.011673 0.069406 0.051661 
0.010719 0.070098 0.052465 
0.011545 0.070085 0.051902 
0.010242 0.070099 0.052653 
0.003159 0.062000 0.053985 
0.004241 0.062008 0.053797 
0.003380 0.062668 0.053851 
0.003921 0.062673 0.053757 
0.004250 0.061260 0.055944 
0.007250 0.061161 0.054864 
0.006000 0.061922 0.055585 
0.007000 0.061889 0.055225 
0.005750 0.062649 0.055946 
0.007000 0.063311 0.055587 
0.003410 0.064012 0.053864 
0.004300 0.064695 0.053823 
0.003026 0.065363 0.054159 
0.004172 0.065376 0.054064 
0.004750 0.065437 0.056070 
0.005191 0.065378 0.053783 
0.005750 0.064038 0.055948 
0.006750 0.064017 0.055708 
0.005750 0.065416 0.055830 
0.006750 0.065395 0.055590 
0.003500 0.061998 0.056425 
0.004500 0.061976 0.056185 
0.003250 0.062703 0.056546 
0.004250 0.062692 0.056426 
0.005250 0.062671 0.056186 
0.003250 0.064102 0.056668 
0.004250 0.064080 0.056428 
0.003250 0.065469 0.056430 
0.004250 0.065448 0.056190 
0.005250 0.064059 0.056188 
0.008500 0.061835 0.054625 
0.009500 0.061781 0.054025 
0.009500 0.063226 0.054627 
0.008000 0.063279 0.055227 
0.010500 0.063172 0.054027 
0.009750 0.063921 0.054628 
0.009750 0.065312 0.054630 
0.008250 0.063974 0.055228 
0.008750 0.063964 0.055108 
0.008250 0.065353 0.055110 
0.008750 0.065343 0.054990 
0.010250 0.063900 0.054388 
0.010250 0.065280 0.054270 
0.003248 0.066722 0.054453 
0.004330 0.066729 0.054265 
0.003120 0.067402 0.054694 
0.004551 0.068088 0.054559 
0.003250 0.066826 0.056072 
0.004250 0.066805 0.055832 
0.003250 0.068194 0.055834 
0.004500 0.067490 0.055713 
0.005348 0.066732 0.053983 
0.006366 0.066735 0.053701 
0.005505 0.068086 0.054183 
0.006460 0.068083 0.053808 
0.005750 0.066785 0.055592 
0.006750 0.066754 0.055232 
0.005750 0.068164 0.055474 
0.006750 0.068144 0.055234 
0.003277 0.068756 0.054894 
0.004359 0.068763 0.054706 
0.004517 0.070116 0.054906 
0.003500 0.068879 0.055715 
0.004500 0.068879 0.055715 
0.003500 0.070278 0.055837 
0.004500 0.070268 0.055717 
0.005855 0.068764 0.054236 
0.006553 0.069431 0.053914 
0.005948 0.070112 0.054343 
0.006838 0.070104 0.053874 
0.005500 0.068859 0.055475 
0.007000 0.068859 0.055475 
0.005500 0.070278 0.055837 
0.007000 0.070278 0.055837 
0.003000 0.066152 0.056311 
0.009750 0.066692 0.054512 
0.009500 0.067398 0.054633 
0.008250 0.066733 0.054992 
0.008250 0.068134 0.055114 
0.008750 0.068134 0.055114 
0.010750 0.066651 0.054032 
0.011250 0.066641 0.053913 
0.010750 0.068073 0.054394 
0.011750 0.068042 0.054035 
0.008000 0.068849 0.055355 
0.009000 0.068829 0.055115 
0.008000 0.070258 0.055597 
0.009000 0.070238 0.055357 
0.010500 0.068778 0.054516 
0.011750 0.069444 0.054157 
0.010500 0.070189 0.054758 
0.011500 0.070149 0.054278 
0.010000 0.070209 0.054998 
0.012731 0.061940 0.049386 
0.013016 0.062614 0.049346 
0.013779 0.063286 0.049118 
0.013000 0.061519 0.051144 
0.014000 0.061487 0.050784 
0.016000 0.061411 0.049944 
0.016500 0.061389 0.049704 
0.017000 0.062797 0.049827 
0.015250 0.062163 0.050545 
0.016250 0.062120 0.050065 
0.015500 0.062872 0.050667 
0.016500 0.062829 0.050187 
0.013238 0.063972 0.049640 
0.014128 0.063965 0.049171 
0.013459 0.065331 0.049934 
0.014285 0.065318 0.049371 
0.012697 0.064658 0.050163 
0.013046 0.065337 0.050216 
0.014891 0.064637 0.048942 
0.014984 0.065985 0.049049 
0.016000 0.064289 0.050909 
0.016500 0.064258 0.050549 
0.016000 0.065706 0.051152 
0.016500 0.065675 0.050792 
0.012750 0.062260 0.051626 
0.013750 0.062228 0.051266 
0.013000 0.062990 0.051987 
0.014000 0.062947 0.051507 
0.013250 0.063708 0.052228 
0.014500 0.064384 0.051989 
0.014750 0.065092 0.052110 
0.013000 0.064437 0.052589 
0.012750 0.065165 0.052950 
0.014000 0.065841 0.052712 
0.015500 0.064332 0.051389 
0.015500 0.065747 0.051632 
0.017750 0.062034 0.049105 
0.018000 0.062744 0.049227 
0.018750 0.063411 0.048868 
0.018000 0.064173 0.049589 
0.019000 0.064110 0.048869 
0.018000 0.065592 0.049832 
0.019000 0.065540 0.049232 
0.017500 0.065623 0.050192 
0.014379 0.066666 0.049478 
0.013518 0.068016 0.049959 
0.014472 0.068013 0.049584 
0.012726 0.066691 0.050604 
0.012755 0.068034 0.050616 
0.015269 0.066658 0.049008 
0.015426 0.068011 0.049208 
0.016508 0.068018 0.049020 
0.016750 0.066373 0.050793 
0.016750 0.067799 0.051156 
0.014344 0.068693 0.049825 
0.012849 0.069381 0.050723 
0.014280 0.069377 0.050159 
0.013198 0.070060 0.050776 
0.014216 0.070062 0.050494 
0.015426 0.068700 0.049637 
0.016793 0.069380 0.049408 
0.016665 0.070059 0.049648 
0.015298 0.070069 0.050305 
0.016124 0.070745 0.050170 
0.014750 0.066507 0.052353 
0.013250 0.066579 0.053193 
0.014250 0.066548 0.052833 
0.013250 0.067992 0.053435 
0.014250 0.067931 0.052715 
0.015250 0.066476 0.051993 
0.015750 0.067860 0.051875 
0.016250 0.067840 0.051635 
0.012721 0.070750 0.051392 
0.013250 0.069374 0.053317 
0.014250 0.069334 0.052837 
0.013000 0.070080 0.053438 
0.014000 0.070051 0.053078 
0.015750 0.069274 0.052118 
0.016750 0.069234 0.051638 
0.016000 0.069972 0.052119 
0.016750 0.070639 0.051760 
0.015250 0.070718 0.052720 
0.018250 0.066301 0.049953 
0.019000 0.066969 0.049595 
0.019250 0.067667 0.049596 
0.018000 0.067030 0.050314 
0.017750 0.067759 0.050676 
0.018750 0.067708 0.050076 
0.020000 0.066907 0.048875 
0.020250 0.067607 0.048876 
0.017620 0.069368 0.048844 
0.019250 0.069095 0.049959 
0.017492 0.070047 0.049085 
0.019500 0.069794 0.049960 
0.018250 0.069165 0.050798 
0.018750 0.069135 0.050438 
0.018250 0.070561 0.050801 
0.018750 0.070531 0.050441 
0.020250 0.069045 0.049359 
0.020250 0.070482 0.049841 
0.021250 0.070443 0.049361 
0.017500 0.069902 0.051279 
0.012500 0.068718 0.053796 
0.012500 0.070110 0.053798 
0.022750 0.039952 0.039413 
0.023000 0.040689 0.039665 
0.023750 0.041346 0.039156 
0.022250 0.040045 0.040301 
0.022750 0.041478 0.040424 
0.024000 0.042083 0.039408 
0.024000 0.043555 0.039912 
0.022500 0.042226 0.040803 
0.022500 0.043658 0.040927 
0.023500 0.043594 0.040293 
0.024000 0.044950 0.039655 
0.023250 0.045698 0.040034 
0.023750 0.045660 0.039654 
0.022750 0.044329 0.040544 
0.022250 0.045773 0.040795 
0.024750 0.044188 0.039150 
0.022750 0.047117 0.040031 
0.023750 0.047055 0.039397 
0.022750 0.048537 0.040027 
0.023750 0.048476 0.039394 
0.022250 0.047155 0.040411 
0.022250 0.048574 0.040408 
0.023000 0.049259 0.040152 
0.024000 0.049186 0.039392 
0.022846 0.050851 0.039618 
0.024500 0.050631 0.039642 
0.022750 0.050042 0.040911 
0.023000 0.050788 0.041289 
0.023500 0.050739 0.040783 
0.024750 0.049872 0.039137 
0.025000 0.050606 0.039389 
0.026250 0.051293 0.039134 
0.022500 0.050812 0.041543 
0.022847 0.051558 0.040046 
0.023958 0.052234 0.039443 
0.023959 0.052940 0.039871 
0.022434 0.052271 0.040757 
0.024500 0.052146 0.040652 
0.022847 0.052970 0.040904 
0.023610 0.053657 0.040675 
0.025500 0.052075 0.039892 
0.026500 0.052027 0.039386 
0.025134 0.053621 0.039361 
0.026750 0.052777 0.039893 
0.025500 0.053586 0.041034 
0.026500 0.053539 0.040527 
0.024245 0.054320 0.040259 
0.023197 0.054356 0.041386 
0.023895 0.054332 0.040635 
0.024181 0.055697 0.041024 
0.025071 0.054307 0.039696 
0.026247 0.054974 0.039187 
0.025229 0.055662 0.039897 
0.026119 0.055654 0.039428 
0.026750 0.054277 0.040908 
0.024879 0.055674 0.040273 
0.022750 0.051569 0.042048 
0.023500 0.052265 0.041919 
0.022371 0.053677 0.041520 
0.023750 0.053003 0.042300 
0.022500 0.052385 0.043186 
0.022750 0.053122 0.043567 
0.023500 0.053799 0.043315 
0.025000 0.053634 0.041541 
0.022371 0.054368 0.041949 
0.022593 0.055729 0.042244 
0.023419 0.055716 0.041681 
0.023750 0.054524 0.043569 
0.024000 0.055238 0.043697 
0.025250 0.054383 0.042048 
0.026500 0.055038 0.041542 
0.025500 0.055108 0.042303 
0.026250 0.055810 0.042304 
0.025250 0.055868 0.042937 
0.027500 0.053468 0.039767 
0.027750 0.054206 0.040148 
0.028750 0.054135 0.039387 
0.029250 0.055587 0.039896 
0.027500 0.054967 0.040782 
0.027750 0.055693 0.041036 
0.028750 0.055622 0.040276 
0.030000 0.054814 0.039134 
0.030250 0.055540 0.039389 
0.031000 0.056231 0.039262 
0.024403 0.057057 0.041318 
0.025450 0.057022 0.040192 
0.026213 0.057003 0.039535 
0.025736 0.057696 0.040151 
0.026434 0.058363 0.039829 
0.025101 0.057034 0.040567 
0.025323 0.058393 0.040862 
0.026656 0.059031 0.039695 
0.026813 0.060385 0.039896 
0.025195 0.059073 0.041103 
0.026179 0.059723 0.040311 
0.025289 0.060422 0.041209 
0.025987 0.060398 0.040459 
0.022814 0.057088 0.042538 
0.023641 0.057076 0.041975 
0.023100 0.057762 0.042498 
0.023926 0.057749 0.041935 
0.022337 0.057089 0.042726 
0.022431 0.058438 0.042832 
0.026500 0.056535 0.042558 
0.025000 0.056617 0.043445 
0.026250 0.057295 0.043193 
0.025500 0.058054 0.043828 
0.026500 0.058008 0.043320 
0.023129 0.059105 0.042510 
0.024020 0.059098 0.042041 
0.023159 0.060448 0.042523 
0.023985 0.060435 0.041960 
0.022460 0.059781 0.042845 
0.024654 0.059760 0.041625 
0.024619 0.061097 0.041544 
0.026500 0.059457 0.043830 
0.026750 0.060158 0.043831 
0.027103 0.056996 0.039066 
0.027261 0.058350 0.039266 
0.028000 0.056407 0.041164 
0.028750 0.057085 0.040911 
0.029000 0.057811 0.041165 
0.030250 0.057004 0.040023 
0.031250 0.056946 0.039390 
0.030500 0.057718 0.040151 
0.031250 0.058397 0.039898 
0.029750 0.057027 0.040277 
0.029750 0.058490 0.040912 
0.030750 0.058432 0.040278 
0.027546 0.059024 0.039226 
0.027639 0.060373 0.039333 
0.031500 0.059111 0.040025 
0.030000 0.059192 0.040913 
0.031000 0.059134 0.040279 
0.030000 0.060619 0.041168 
0.031000 0.060562 0.040534 
0.027750 0.057167 0.041798 
0.027500 0.057927 0.042433 
0.027250 0.058686 0.043068 
0.028000 0.059342 0.042562 
0.028500 0.059284 0.041927 
0.028250 0.060043 0.042562 
0.029000 0.060688 0.041929 
0.027500 0.059399 0.043196 
0.028000 0.060802 0.043197 
0.022250 0.053181 0.044201 
0.022750 0.054631 0.044710 
0.023000 0.055355 0.044964 
0.023750 0.055997 0.044332 
0.022250 0.054701 0.045470 
0.022500 0.055414 0.045598 
0.024000 0.056710 0.044459 
0.024000 0.058147 0.044842 
0.023000 0.056815 0.045600 
0.023000 0.058263 0.046110 
0.023500 0.058217 0.045603 
0.024750 0.057376 0.044080 
0.025000 0.058089 0.044208 
0.024250 0.058848 0.044843 
0.024250 0.060272 0.045099 
0.023250 0.058952 0.045984 
0.023750 0.058906 0.045477 
0.023250 0.060376 0.046240 
0.023750 0.060318 0.045606 
0.025000 0.059526 0.044590 
0.026000 0.059480 0.044083 
0.025250 0.060227 0.044592 
0.026500 0.060893 0.044212 
0.022500 0.058309 0.046617 
0.022500 0.059733 0.046873 
0.022750 0.060422 0.046747 
0.032250 0.058351 0.039391 
0.032500 0.059065 0.039518 
0.033250 0.059733 0.039138 
0.032500 0.060505 0.039900 
0.033500 0.060448 0.039266 
0.024585 0.062435 0.041463 
0.026907 0.061734 0.040002 
0.026936 0.063077 0.040015 
0.025254 0.061759 0.041128 
0.026080 0.061747 0.040565 
0.025219 0.063097 0.041047 
0.026046 0.063084 0.040484 
0.024230 0.064437 0.041342 
0.024388 0.065100 0.041114 
0.026488 0.064421 0.040215 
0.026390 0.065754 0.040041 
0.025121 0.064430 0.040872 
0.026011 0.064422 0.040403 
0.025278 0.065093 0.040644 
0.023060 0.061781 0.042348 
0.023950 0.061773 0.041879 
0.023026 0.063118 0.042267 
0.023916 0.063111 0.041798 
0.022170 0.061788 0.042817 
0.022927 0.064451 0.042093 
0.023817 0.064444 0.041623 
0.022735 0.065126 0.042240 
0.023562 0.065113 0.041677 
0.027000 0.065066 0.043837 
0.027669 0.061716 0.039345 
0.027762 0.063064 0.039452 
0.030250 0.061310 0.041042 
0.031000 0.061989 0.040789 
0.030250 0.062737 0.041297 
0.031250 0.062680 0.040663 
0.027856 0.064412 0.039558 
0.028269 0.064406 0.039277 
0.027664 0.065087 0.039706 
0.028554 0.065079 0.039236 
0.031250 0.064096 0.040791 
0.030500 0.064854 0.041426 
0.031250 0.065511 0.040919 
0.029000 0.062137 0.042438 
0.029250 0.062827 0.042312 
0.027750 0.061538 0.043579 
0.028500 0.062182 0.042946 
0.027750 0.062940 0.043581 
0.028750 0.062883 0.042946 
0.029500 0.062080 0.041804 
0.029750 0.062782 0.041805 
0.029250 0.064253 0.042568 
0.029250 0.065645 0.042442 
0.027750 0.064343 0.043583 
0.028750 0.064275 0.042821 
0.027750 0.065734 0.043458 
0.028750 0.065678 0.042823 
0.029750 0.064208 0.042060 
0.029750 0.065612 0.042062 
0.024417 0.066444 0.041127 
0.026611 0.066422 0.039906 
0.026832 0.067780 0.040200 
0.025244 0.066431 0.040563 
0.026006 0.067103 0.040335 
0.025593 0.067800 0.041045 
0.026419 0.067787 0.040482 
0.025593 0.068489 0.041473 
0.026768 0.069155 0.040963 
0.026832 0.069849 0.041485 
0.022829 0.066474 0.042346 
0.023655 0.066462 0.041783 
0.023940 0.067825 0.042171 
0.022416 0.067171 0.043056 
0.022701 0.067844 0.043016 
0.024767 0.067812 0.041608 
0.027000 0.066458 0.043713 
0.026500 0.067860 0.043715 
0.024289 0.069193 0.042652 
0.022922 0.069202 0.043310 
0.023812 0.069194 0.042840 
0.022858 0.069887 0.043644 
0.024161 0.070562 0.043321 
0.025180 0.069185 0.042183 
0.026070 0.069177 0.041714 
0.025465 0.070548 0.042570 
0.026355 0.070540 0.042101 
0.026500 0.069252 0.043589 
0.025051 0.070554 0.042852 
0.026750 0.069942 0.043463 
0.027629 0.066425 0.039625 
0.028584 0.066422 0.039249 
0.027659 0.067768 0.039637 
0.028549 0.067760 0.039168 
0.031250 0.066927 0.041048 
0.031500 0.067618 0.040922 
0.028008 0.069136 0.040119 
0.028706 0.069113 0.039368 
0.029055 0.070480 0.039849 
0.027595 0.069142 0.040400 
0.027944 0.070509 0.040881 
0.028770 0.070497 0.040318 
0.030500 0.069066 0.041431 
0.031500 0.069033 0.041050 
0.030500 0.070448 0.041178 
0.031500 0.070427 0.040924 
0.029000 0.066358 0.042570 
0.029000 0.067739 0.042318 
0.027500 0.066435 0.043459 
0.028500 0.066380 0.042824 
0.027500 0.067816 0.043207 
0.030000 0.066302 0.041935 
0.030000 0.067695 0.041810 
0.028000 0.069164 0.042574 
0.029000 0.069110 0.041939 
0.028000 0.070568 0.042575 
0.029000 0.070502 0.041813 
0.027500 0.069197 0.042955 
0.027500 0.070600 0.042956 
0.030000 0.069077 0.041558 
0.029750 0.069779 0.041559 
0.024500 0.062375 0.045102 
0.023250 0.061777 0.046243 
0.023750 0.061731 0.045735 
0.023250 0.063177 0.046245 
0.023750 0.063132 0.045738 
0.025250 0.061640 0.044720 
0.026250 0.061617 0.044467 
0.025250 0.063042 0.044723 
0.026250 0.063019 0.044469 
0.024500 0.063777 0.045104 
0.024500 0.065167 0.044980 
0.023000 0.063867 0.046119 
0.023750 0.064522 0.045613 
0.023000 0.065256 0.045995 
0.024000 0.065200 0.045360 
0.025250 0.064444 0.044725 
0.026250 0.064410 0.044344 
0.025000 0.065145 0.044726 
0.026250 0.065801 0.044219 
0.022750 0.061834 0.046877 
0.022500 0.062534 0.046878 
0.022500 0.063900 0.046500 
0.022250 0.065990 0.046377 
0.027250 0.062974 0.043961 
0.024000 0.066580 0.045109 
0.024500 0.067948 0.044730 
0.023000 0.066657 0.045997 
0.023500 0.066613 0.045490 
0.023000 0.068080 0.046253 
0.023500 0.068036 0.045746 
0.025000 0.066535 0.044601 
0.026000 0.066502 0.044220 
0.025000 0.067926 0.044476 
0.026000 0.067882 0.043968 
0.022224 0.069225 0.044060 
0.022509 0.070587 0.044447 
0.024000 0.069437 0.045748 
0.024250 0.070160 0.046003 
0.025000 0.069339 0.044605 
0.025250 0.070040 0.044606 
0.026000 0.070698 0.044099 
0.024750 0.070095 0.045241 
0.022500 0.068135 0.046888 
0.022750 0.068858 0.047144 
0.023500 0.069514 0.046637 
0.023250 0.070280 0.047400 
0.023750 0.070236 0.046892 
0.022250 0.068934 0.048032 
0.022750 0.070345 0.048162 
0.032500 0.061932 0.040155 
0.033500 0.061876 0.039520 
0.032750 0.062635 0.040155 
0.033750 0.062578 0.039521 
0.032000 0.061955 0.040408 
0.032500 0.063349 0.040283 
0.032750 0.064040 0.040157 
0.033750 0.063995 0.039649 
0.032750 0.065433 0.040031 
0.033750 0.065400 0.039650 
0.032250 0.064062 0.040410 
0.032250 0.065467 0.040412 
