ply
format ascii 1.0
comment Created by CloudCompare v2.12.4 (Kyiv)
comment Created 2023-08-22T23:51:44
obj_info Generated by CloudCompare!
element vertex 483
property float x
property float y
property float z
end_header
0.039327 0.068207 -0.005410 
0.036497 0.076092 -0.012405 
0.036812 0.082991 -0.013875 
0.039698 0.075095 -0.005909 
0.039888 0.086161 -0.005880 
0.041868 0.076055 -0.001414 
0.041816 0.084925 -0.003023 
0.038851 0.095245 -0.004500 
0.031892 0.107735 -0.005227 
0.034386 0.103585 -0.004138 
-0.064000 0.180443 -0.058698 
-0.076250 0.179650 -0.050287 
-0.079000 0.174212 -0.044423 
-0.076000 0.178870 -0.048574 
-0.066750 0.176534 -0.050704 
-0.064250 0.174971 -0.052980 
-0.070582 0.182676 -0.053859 
-0.065428 0.181028 -0.056026 
-0.069500 0.174214 -0.043711 
-0.065500 0.172650 -0.047412 
-0.071206 0.178736 -0.047138 
-0.050648 0.131208 -0.001238 
-0.040680 0.147215 -0.001180 
-0.079000 0.166532 -0.032756 
-0.078250 0.162753 -0.025047 
-0.067560 0.168484 -0.029566 
-0.065250 0.167312 -0.030733 
-0.068500 0.166591 -0.022765 
-0.065500 0.165048 -0.025055 
-0.078250 0.170369 -0.036282 
-0.075750 0.168855 -0.029254 
-0.071244 0.171643 -0.032380 
-0.071355 0.170064 -0.026292 
-0.077250 0.156791 -0.014233 
-0.076750 0.161315 -0.015864 
-0.075750 0.156888 -0.007081 
-0.070500 0.163608 -0.014116 
-0.065250 0.161303 -0.017079 
-0.069330 0.155585 -0.003012 
-0.071403 0.160109 -0.007045 
-0.018000 0.187940 -0.019725 
-0.036476 0.149349 -0.002608 
-0.049000 0.166725 -0.000218 
-0.037500 0.163720 -0.000617 
-0.017479 0.157098 -0.009981 
-0.020457 0.165995 -0.011889 
-0.030382 0.152185 -0.004385 
-0.022453 0.155717 -0.005705 
-0.031406 0.163207 -0.004805 
-0.022000 0.162169 -0.005878 
-0.046750 0.168975 -0.000492 
-0.041250 0.173476 -0.004148 
-0.027500 0.172716 -0.009819 
-0.021750 0.173469 -0.014278 
-0.020750 0.182571 -0.014033 
-0.030750 0.173476 -0.004823 
-0.026455 0.175698 -0.008034 
-0.030000 0.180265 -0.007271 
-0.024532 0.181579 -0.008897 
0.026766 0.114775 -0.003143 
0.032185 0.110643 -0.000424 
-0.008879 0.165821 -0.023310 
-0.010649 0.174005 -0.022984 
-0.012726 0.182985 -0.025347 
-0.014913 0.158530 -0.012463 
-0.011774 0.163643 -0.014633 
-0.016661 0.158565 -0.008814 
-0.016000 0.162143 -0.008578 
-0.014000 0.171185 -0.017918 
-0.016630 0.183729 -0.018218 
-0.072250 0.038145 0.008214 
-0.068250 0.045271 0.006444 
-0.060750 0.048025 0.004850 
-0.068500 0.036503 0.013413 
-0.067000 0.043430 0.009992 
-0.061500 0.045024 0.011386 
-0.078500 0.069743 0.016283 
-0.057750 0.055021 0.003208 
-0.059250 0.057795 0.017706 
-0.073000 0.064183 0.017692 
-0.067500 0.037078 0.032441 
-0.065500 0.040478 0.037636 
-0.065750 0.042365 0.035222 
-0.060970 0.047093 0.036135 
-0.076500 0.070442 0.024540 
-0.065750 0.060804 0.019603 
-0.059250 0.059590 0.021889 
-0.070500 0.066175 0.024291 
-0.061750 0.062862 0.026833 
-0.069623 0.067764 0.032736 
-0.060750 0.066297 0.033812 
-0.055750 0.051326 0.009227 
-0.053750 0.048771 0.012528 
-0.055500 0.056279 0.008831 
-0.053000 0.055132 0.011878 
-0.053000 0.051061 0.029124 
-0.050708 0.047480 0.036978 
-0.039657 0.047128 0.036776 
-0.031711 0.050143 0.035937 
-0.052750 0.055805 0.026966 
-0.054750 0.061538 0.027849 
-0.050000 0.055718 0.033685 
-0.039679 0.055567 0.037440 
-0.051250 0.065010 0.035208 
-0.037558 0.064770 0.039013 
-0.032533 0.055594 0.034608 
-0.026500 0.056126 0.038121 
-0.033813 0.066156 0.037373 
-0.026500 0.063236 0.039014 
-0.082500 0.074674 0.007118 
-0.085750 0.079037 0.017025 
-0.082250 0.074515 0.013857 
-0.088500 0.086961 0.018160 
-0.089500 0.095474 0.015890 
-0.087750 0.104840 0.015151 
-0.080500 0.076082 0.024279 
-0.086750 0.086648 0.023504 
-0.084750 0.085469 0.026686 
-0.077210 0.076157 0.034732 
-0.080500 0.085328 0.033941 
-0.075250 0.071514 0.028858 
-0.072250 0.074941 0.036100 
-0.061500 0.071637 0.038639 
-0.074250 0.083607 0.038902 
-0.088250 0.095279 0.023522 
-0.084750 0.095658 0.028992 
-0.086500 0.103167 0.023156 
-0.083500 0.106243 0.026468 
-0.080500 0.095289 0.033953 
-0.079007 0.104620 0.034114 
-0.074500 0.097056 0.038916 
-0.071812 0.106229 0.036645 
-0.061519 0.107100 0.037966 
-0.035132 0.071765 0.038863 
-0.052048 0.106497 0.038115 
-0.040802 0.106558 0.036857 
-0.031690 0.107299 0.037336 
-0.022643 0.108758 0.039037 
-0.067920 0.037294 0.041253 
-0.061500 0.036907 0.044115 
-0.065931 0.042982 0.040492 
-0.060000 0.045217 0.042317 
-0.050889 0.036667 0.043174 
-0.041500 0.036811 0.043227 
-0.051500 0.045331 0.043458 
-0.041500 0.045128 0.041430 
-0.037646 0.036925 0.048838 
-0.035750 0.037845 0.046270 
-0.018088 0.035594 0.048711 
-0.031910 0.047237 0.044147 
-0.021375 0.046968 0.044961 
-0.031582 0.036714 0.051970 
-0.022000 0.037907 0.053338 
-0.030000 0.044618 0.050315 
-0.021750 0.045584 0.052834 
-0.046307 0.059669 0.039164 
-0.041250 0.057004 0.040023 
-0.048512 0.068053 0.040178 
-0.040500 0.066280 0.041682 
-0.034500 0.059031 0.039138 
-0.022500 0.056687 0.044206 
-0.033250 0.066872 0.040413 
-0.023000 0.065156 0.044853 
-0.019820 0.057772 0.050995 
-0.021341 0.066683 0.052556 
-0.076009 0.085604 0.039389 
-0.068783 0.077379 0.040411 
-0.060000 0.076159 0.042328 
-0.069937 0.085921 0.042964 
-0.060750 0.085441 0.044375 
-0.076212 0.094868 0.039324 
-0.079873 0.108525 0.042967 
-0.069750 0.095160 0.042222 
-0.060750 0.095313 0.044384 
-0.068500 0.102789 0.039813 
-0.060750 0.103610 0.041594 
-0.051000 0.076233 0.043218 
-0.041500 0.076223 0.043091 
-0.050730 0.085662 0.044074 
-0.040750 0.085332 0.042975 
-0.032500 0.076075 0.041311 
-0.025750 0.074374 0.046137 
-0.031000 0.086033 0.042976 
-0.026500 0.089286 0.048797 
-0.027477 0.076787 0.052647 
-0.021500 0.075659 0.053567 
-0.027627 0.084972 0.052242 
-0.022154 0.085834 0.054482 
-0.051250 0.095304 0.044257 
-0.041250 0.095151 0.042094 
-0.051250 0.103562 0.040831 
-0.043000 0.104287 0.041086 
-0.031966 0.094935 0.043428 
-0.022026 0.095717 0.043346 
-0.030750 0.103618 0.041721 
-0.022000 0.104406 0.042993 
-0.020500 0.093698 0.052033 
0.019864 0.033107 0.024987 
0.018729 0.035239 0.034818 
0.019601 0.045114 0.037649 
0.030901 0.033570 0.016754 
0.037535 0.035791 0.015339 
0.045391 0.040048 0.004128 
0.047288 0.042167 0.003756 
0.053493 0.048057 0.005624 
0.045086 0.039451 0.014349 
0.048913 0.042364 0.014571 
0.054031 0.048065 0.014850 
0.056078 0.056292 0.004791 
0.042894 0.069547 0.004678 
0.054560 0.065110 0.005472 
0.056676 0.056327 0.014992 
0.044433 0.068755 0.014060 
0.055658 0.065662 0.014176 
0.027120 0.036150 0.024911 
0.035999 0.037775 0.023696 
0.028951 0.043439 0.029208 
0.037500 0.042344 0.027994 
0.025250 0.039235 0.032564 
0.026784 0.046466 0.033952 
0.037500 0.046971 0.031284 
0.043402 0.040676 0.022063 
0.047205 0.046459 0.024850 
0.053500 0.048975 0.022284 
0.044750 0.049093 0.031027 
0.037756 0.057272 0.027609 
0.039114 0.065270 0.025869 
0.028790 0.054941 0.037592 
0.035750 0.056445 0.033938 
0.030713 0.065705 0.037507 
0.038000 0.065714 0.035208 
0.047931 0.056818 0.027900 
0.056500 0.056268 0.024303 
0.046595 0.065320 0.023526 
0.056500 0.066208 0.024672 
0.046750 0.056271 0.032037 
0.052250 0.057438 0.029374 
0.046750 0.063108 0.029625 
0.051500 0.062380 0.029371 
0.007758 0.106761 0.038853 
0.018241 0.106753 0.037365 
0.041456 0.079560 0.000122 
0.041658 0.088535 0.000659 
0.041627 0.088553 0.017930 
0.042896 0.075715 0.004986 
0.042777 0.085268 0.004595 
0.046750 0.074683 0.015890 
0.056500 0.072499 0.015260 
0.042423 0.085664 0.013835 
0.040226 0.096252 0.004155 
0.036644 0.104546 0.004926 
0.039853 0.096630 0.015143 
0.036352 0.104808 0.014260 
0.044500 0.096425 0.008516 
0.044250 0.094706 0.015253 
0.041750 0.103367 0.014766 
0.039816 0.075398 0.026226 
0.039563 0.085480 0.026071 
0.031779 0.075822 0.038398 
0.035779 0.075675 0.033615 
0.031920 0.085901 0.038820 
0.035858 0.085069 0.033519 
0.044500 0.076082 0.024279 
0.054500 0.071580 0.021235 
0.044750 0.085231 0.023631 
0.041750 0.077226 0.029617 
0.041750 0.084304 0.029868 
0.037955 0.095590 0.024814 
0.031692 0.107203 0.027347 
0.035155 0.104385 0.023612 
0.028563 0.097285 0.036744 
0.037000 0.095334 0.034589 
0.027132 0.105343 0.034461 
0.034500 0.103762 0.032693 
0.043250 0.095279 0.023522 
-0.011410 0.036371 0.046506 
-0.002141 0.036543 0.044121 
-0.012529 0.044555 0.045566 
-0.002250 0.044931 0.046503 
-0.013250 0.038336 0.050814 
-0.007000 0.038832 0.048891 
-0.013500 0.044631 0.050435 
-0.004014 0.048079 0.051766 
0.007326 0.036816 0.042911 
0.016250 0.037546 0.043479 
0.008378 0.045276 0.045151 
0.017250 0.046014 0.043203 
0.006250 0.048161 0.050544 
-0.016500 0.051488 0.048612 
-0.011797 0.056151 0.053481 
-0.002412 0.056476 0.053927 
-0.012410 0.065649 0.054142 
-0.002277 0.065953 0.054799 
0.009807 0.056493 0.048771 
0.018397 0.056478 0.045394 
0.019115 0.064541 0.045377 
0.007250 0.056819 0.053057 
0.014750 0.056498 0.049695 
0.007448 0.066052 0.053085 
0.015250 0.066476 0.051993 
0.022250 0.040045 0.040301 
0.024000 0.046345 0.039399 
0.026000 0.056570 0.042938 
0.033000 0.059031 0.039138 
0.026750 0.065779 0.043965 
0.034250 0.065378 0.039396 
-0.011805 0.075268 0.056589 
-0.000977 0.075439 0.055603 
-0.012720 0.086032 0.055891 
-0.002376 0.086147 0.055084 
0.019993 0.075406 0.048195 
0.017044 0.086063 0.047177 
0.007305 0.075465 0.053550 
0.017000 0.075613 0.052968 
0.007605 0.085526 0.053318 
0.016000 0.085267 0.051546 
-0.012055 0.097869 0.043278 
-0.001892 0.097335 0.045328 
-0.011750 0.105136 0.043375 
-0.002250 0.105191 0.044265 
-0.012000 0.095219 0.054070 
-0.002250 0.095926 0.054190 
0.007095 0.096107 0.047002 
0.017824 0.096124 0.044986 
0.007500 0.104453 0.043756 
0.017250 0.105160 0.043757 
0.006750 0.094442 0.052752 
0.015000 0.093606 0.050476 
-0.002000 0.076055 0.058723 
0.026378 0.075939 0.042901 
0.033250 0.076778 0.041312 
0.028250 0.085471 0.044757 
0.034000 0.085884 0.041067 
0.024000 0.076698 0.048894 
0.023250 0.084406 0.049149 
0.027250 0.095286 0.044003 
0.033750 0.093580 0.039930 
0.024500 0.102927 0.041974 
-0.092000 0.114392 0.017716 
-0.090750 0.134052 0.019240 
-0.093250 0.116657 0.019627 
-0.093250 0.124184 0.026240 
-0.092250 0.116215 0.038938 
-0.068750 0.110480 0.037914 
-0.060156 0.113423 0.035828 
-0.057535 0.126300 0.037607 
-0.090250 0.134235 0.024193 
-0.091250 0.144425 0.025828 
-0.090000 0.135449 0.037652 
-0.088250 0.143239 0.034464 
-0.082949 0.147960 0.036227 
-0.055942 0.146928 0.027489 
-0.060465 0.134842 0.034889 
-0.065737 0.145698 0.038893 
-0.060000 0.144161 0.034027 
-0.047435 0.128372 0.002652 
-0.040660 0.127071 0.009073 
-0.046356 0.129380 0.015313 
-0.041277 0.125775 0.015302 
-0.031070 0.123646 0.015677 
-0.022250 0.126662 0.016456 
-0.049906 0.134971 0.004650 
-0.049309 0.142982 0.004900 
-0.043250 0.146732 0.003725 
-0.049441 0.135162 0.015095 
-0.043500 0.130150 0.012514 
-0.051500 0.144843 0.015162 
-0.049162 0.118224 0.028320 
-0.042874 0.118959 0.028208 
-0.048352 0.125305 0.025796 
-0.040750 0.124076 0.023826 
-0.051250 0.114546 0.034234 
-0.041250 0.114539 0.034107 
-0.051250 0.124535 0.034114 
-0.040250 0.120020 0.029542 
-0.031134 0.118943 0.025901 
-0.025693 0.119692 0.027209 
-0.032000 0.123340 0.023573 
-0.021250 0.124104 0.024461 
-0.031250 0.114532 0.033980 
-0.021827 0.115621 0.034751 
-0.034750 0.120014 0.029415 
-0.020000 0.120862 0.032211 
-0.051051 0.133899 0.024305 
-0.046000 0.130532 0.022166 
-0.053000 0.143663 0.024560 
-0.052750 0.133085 0.032068 
-0.055750 0.144577 0.031034 
-0.088500 0.152230 0.019215 
-0.059250 0.157075 0.006516 
-0.056750 0.160028 0.004924 
-0.058263 0.154805 0.016356 
-0.088500 0.150884 0.023660 
-0.080750 0.154535 0.024925 
-0.086000 0.149605 0.030391 
-0.079750 0.151837 0.033307 
-0.069250 0.155993 0.025430 
-0.060639 0.154162 0.024871 
-0.070750 0.153293 0.034066 
-0.061250 0.153273 0.033178 
-0.047322 0.154634 0.008440 
-0.041000 0.153389 0.005742 
-0.051250 0.163017 0.004784 
-0.041500 0.163762 0.004513 
-0.052750 0.152823 0.013248 
-0.032767 0.155881 0.002244 
-0.032250 0.159992 0.001685 
-0.040500 0.169734 0.001937 
-0.035467 0.171391 0.000151 
-0.054000 0.152357 0.024674 
-0.055750 0.151744 0.029372 
-0.089250 0.115059 0.043892 
-0.080250 0.113791 0.046560 
-0.090750 0.124982 0.044148 
-0.083193 0.120781 0.048029 
-0.085250 0.118125 0.048813 
-0.078226 0.115936 0.051431 
-0.087597 0.125822 0.049000 
-0.079948 0.125211 0.052691 
-0.068743 0.112234 0.044565 
-0.063250 0.116439 0.043258 
-0.066988 0.126514 0.046816 
-0.061500 0.124217 0.043007 
-0.070750 0.115424 0.051684 
-0.065250 0.118152 0.049531 
-0.070500 0.124600 0.053001 
-0.065250 0.123783 0.049532 
-0.088000 0.134224 0.043242 
-0.083250 0.136529 0.047810 
-0.087127 0.141527 0.040453 
-0.080000 0.144226 0.043477 
-0.086724 0.130856 0.048834 
-0.079750 0.133777 0.051548 
-0.068599 0.134334 0.044719 
-0.064500 0.132722 0.041340 
-0.070500 0.144253 0.044366 
-0.065250 0.143420 0.040431 
-0.072000 0.133039 0.050352 
-0.055750 0.123329 0.039198 
-0.021250 0.111978 0.039314 
-0.077250 0.149111 0.039152 
-0.071250 0.149137 0.040167 
-0.014000 0.128941 0.018739 
-0.000902 0.128600 0.016770 
0.016705 0.124080 0.004526 
0.008126 0.127806 0.015384 
0.017428 0.124209 0.014465 
-0.010750 0.129674 0.018865 
0.000500 0.131763 0.016449 
0.004500 0.131773 0.016703 
-0.012147 0.125252 0.025651 
-0.002538 0.126595 0.025514 
-0.012186 0.116341 0.036895 
-0.002049 0.117012 0.037105 
-0.011750 0.123068 0.033482 
-0.002000 0.123816 0.034116 
0.019936 0.119504 0.026688 
0.008260 0.125810 0.024949 
0.018000 0.126277 0.024458 
0.007575 0.115599 0.036164 
0.017294 0.114856 0.034016 
0.007500 0.123810 0.033989 
0.015500 0.122284 0.032086 
-0.008750 0.129832 0.022802 
-0.003000 0.130552 0.022674 
0.007250 0.129893 0.024326 
0.013750 0.129710 0.019754 
0.028413 0.115631 0.005028 
0.032146 0.111469 0.005273 
0.023508 0.119832 0.005727 
0.028320 0.115821 0.014655 
0.035750 0.112299 0.019109 
0.026750 0.122343 0.017605 
0.026909 0.115333 0.024583 
0.034250 0.113993 0.023814 
0.025250 0.122639 0.024083 
0.026750 0.114492 0.033217 
0.032000 0.112185 0.030164 
0.023000 0.120778 0.030432 
-0.011500 0.112793 0.041221 
-0.002000 0.114229 0.041604 
0.006500 0.114161 0.040333 
0.015250 0.111964 0.039060 
